-6.0439 61.1230 0.9200
-5.8940 61.2695 0.1320
-6.6021 59.9785 0.5580
-6.4102 60.1113 -0.2160
-6.9500 58.4688 0.1840
-6.7339 58.5977 -0.5820
-6.9980 56.8984 -0.0680
-6.7620 57.0137 -0.8420
-6.8521 55.1895 -0.2380
-6.5959 55.2852 -1.0000
-6.5898 53.5781 -0.3140
-6.2861 53.6582 -1.0460
-6.1580 51.6914 -0.3160
-5.7759 51.7715 -0.9880
-6.1860 51.7051 -0.8300
-5.7441 51.7637 -0.3720
-6.5142 53.6035 -0.7460
-6.0640 53.6699 -0.2260
-6.7581 55.2520 -0.6420
-6.3000 55.2617 -0.0800
-6.8999 56.9492 -0.4040
-6.4238 56.8965 0.1460
-6.8799 58.5195 -0.0860
-6.3740 58.3770 0.4460
-6.5762 60.0234 0.3440
-6.0859 59.7344 0.8420
-6.0142 61.1621 0.7400
-5.6340 60.7051 1.2100
-5.3359 61.9121 1.0300
-5.0720 61.3047 1.4800
-4.4639 62.4492 1.2500
-4.3179 61.7363 1.7100
-3.0820 62.7754 1.3360
-3.0460 62.0625 1.8820
2.9440 62.6484 1.3320
3.0400 62.5332 2.1980
4.2720 61.9453 1.0740
4.3940 61.8398 1.9320
5.2200 60.9629 0.8060
5.3818 60.8281 1.6260
5.7661 59.7207 0.5280
5.9280 59.6094 1.3480
6.0898 58.4238 0.3240
6.2820 58.3457 1.1520
6.2380 57.0742 0.2180
6.4480 57.0449 1.0560
6.2021 55.7129 0.2120
6.4302 55.7266 1.0340
5.9380 54.4316 0.3240
6.1919 54.4688 1.1160
5.5420 53.1230 0.5520
5.8000 53.1504 1.3100
-1.7679 63.0996 2.3160
-0.2679 62.6641 3.4299
-2.0200 62.6016 2.9280
-0.5480 61.9258 4.3359
-2.3040 61.7637 3.7280
-2.5560 60.9727 4.5439
-0.7820 61.0996 5.1379
1.7679 63.0996 2.3160
1.4320 62.3008 3.6460
1.2040 61.6602 4.5840
0.9900 60.7715 5.3420
7.2400 42.6875 3.2100
7.8340 42.2422 3.3879
7.6541 42.1641 3.2319
8.1980 41.8047 3.2739
8.1299 41.7363 3.2080
8.8359 41.3867 3.1460
8.7061 40.9824 3.0820
9.5537 40.7109 2.9480
9.6162 40.5840 3.2820
8.7422 40.8281 3.5420
7.8979 41.3672 3.2040
7.8979 41.2168 3.7800
7.2280 41.9258 3.2660
7.0879 41.8711 3.9719
6.8262 42.6504 3.2440
6.5981 42.6953 4.0140
6.7581 43.2168 3.1580
6.4819 43.3398 3.9260
6.5920 44.0469 3.7280
6.8901 44.6113 3.3640
7.2480 45.0625 2.8420
7.4619 56.0273 -4.2900
7.4741 56.0781 -3.7500
6.6040 55.7227 -4.1880
6.3159 55.9844 -4.7339
5.1680 55.5488 -5.1140
4.8262 56.1211 -5.8640
3.1240 55.7813 -6.5439
4.1260 55.1055 -5.3359
4.7778 55.1035 -3.9320
5.5259 55.5039 -4.0500
5.2759 55.6328 -2.7020
5.9419 55.8555 -3.1400
6.1960 56.6406 -2.6600
6.9961 56.5566 -3.3800
6.8481 56.0293 -3.5880
7.5762 56.4648 -3.5580
6.1440 56.4219 -5.2661
7.5479 56.3516 -4.5520
7.6621 56.7988 -4.5781
-4.2620 62.5059 0.9900
-3.4200 61.7539 2.6460
-3.0560 62.6660 2.3400
-4.4858 61.3418 1.4360
-3.6460 60.7148 3.0380
-4.5840 60.0938 1.9340
-5.2979 60.7148 0.0820
-5.2979 59.3301 0.6480
-5.8840 60.0000 -1.3200
-5.8621 58.5742 -0.6260
-6.1099 59.2559 -2.7360
-6.2041 57.7891 -2.0759
-6.0100 58.4746 -4.0420
-6.1499 56.9375 -3.4380
-5.5520 57.7227 -5.2241
-5.6479 56.1523 -4.5801
-4.7661 56.9668 -6.2959
-4.8101 55.3770 -5.6160
-3.7520 56.3281 -7.2139
-3.8120 54.8438 -6.4541
-0.1541 61.0195 -8.2139
0.7581 60.3047 -8.4600
-1.0580 60.1016 -8.4600
-2.0840 60.8438 -7.9460
-3.0060 59.5469 -7.9961
-3.9840 60.2891 -7.1421
-4.5239 58.6094 -6.8179
-5.3301 59.3477 -5.7500
-5.7778 60.1133 -4.5459
-5.8901 60.8027 -3.2720
-5.6560 61.4668 -1.8440
-5.0920 62.0469 -0.3960
-4.5959 63.2402 -0.7540
3.0341 61.0352 -7.3081
1.5540 61.0859 -7.9761
2.4160 61.6992 -7.2419
0.7880 61.7832 -7.7939
-1.0300 61.7676 -7.7100
-2.8940 61.5391 -7.1880
-4.7380 61.0547 -6.0759
-5.1880 61.7051 -4.8740
-5.3481 62.2734 -3.5980
-5.1621 62.7891 -2.1840
1.7980 62.3574 -7.0520
0.0840 62.5234 -7.3740
-1.7061 62.4551 -7.0400
-3.5800 62.2676 -6.1621
-3.9940 62.9180 -4.9680
-4.1580 63.4355 -3.7240
-4.0160 63.8418 -2.3740
-3.5341 64.1348 -0.9440
-2.6420 64.5430 -2.4520
-2.2841 64.7266 -1.0460
-1.3060 65.0078 -2.4761
-1.0480 65.1133 -1.0920
0.0179 65.1973 -2.4620
0.2360 65.2344 -1.0960
-2.2760 63.1289 -6.0959
-2.6520 63.6992 -4.9460
-2.7581 64.1621 -3.7300
-1.3680 64.7363 -3.6940
0.0300 64.9551 -3.5840
-0.4740 63.2188 -6.7480
-0.9180 63.8301 -5.9099
-1.2380 64.3516 -4.8821
0.1740 64.5918 -4.7241
1.2700 62.9805 -6.7041
0.8400 63.5684 -6.2319
0.4700 64.1191 -5.5701
-2.4480 55.8477 -7.8740
-2.4680 54.4688 -7.2061
-1.0260 55.5488 -8.2939
-1.0560 54.2695 -7.6641
0.4900 55.3770 -8.3179
0.4280 54.2227 -7.7261
1.8900 55.3223 -8.0161
1.8040 54.2988 -7.4419
3.2419 55.3945 -7.4580
3.0840 54.4707 -6.8901
4.4438 55.5898 -6.7019
4.2620 54.7891 -6.1919
5.5479 55.8477 -5.7800
5.3301 55.2578 -5.4041
6.5640 56.1348 -5.0020
6.3481 55.7930 -4.5801
7.7200 56.1191 -4.3220
7.6680 56.3984 -4.5259
6.6938 56.5781 -5.2041
5.7080 56.4355 -6.0320
4.5981 56.3340 -7.0320
3.4000 56.3164 -7.8540
2.0580 56.3906 -8.3960
0.6360 56.5664 -8.7041
-0.8680 56.8887 -8.6899
0.8680 57.7715 -8.8242
5.8481 57.0215 -6.1321
4.7642 57.0371 -7.1699
3.5540 57.1875 -7.9661
4.9280 57.7305 -7.1121
3.7500 57.9902 -7.9080
3.9960 58.6816 -7.7581
2.4940 58.3262 -8.4482
2.2500 57.4277 -8.5200
-2.2600 57.3594 -8.3281
-0.5341 58.2422 -8.8398
1.2581 58.8008 -8.7021
2.8220 59.1406 -8.2959
3.2159 59.8555 -7.8701
4.2600 59.2969 -7.4021
5.1299 58.3945 -6.8679
5.9839 57.6113 -6.0840
6.8220 57.0684 -5.2261
7.6841 56.8047 -4.5679
7.7842 57.0977 -4.3501
6.9619 57.5586 -5.0381
6.1040 58.1914 -5.8501
5.2920 58.9082 -6.4900
4.4600 59.6563 -7.0020
3.7300 60.3770 -7.2380
2.3521 60.4492 -8.0420
-3.4840 57.9414 -7.7100
-1.8621 58.8516 -8.5479
0.0580 59.4063 -8.7061
1.7620 59.6953 -8.4800
-3.6940 63.5137 0.6800
-2.7920 64.2559 0.4660
-1.7360 64.7070 0.3520
-0.6140 64.9473 0.2820
0.6180 64.9375 0.2100
0.1180 64.3906 1.5460
1.2220 64.2930 1.4440
0.9220 63.2813 2.4640
-2.5140 63.4492 2.0660
-1.7581 63.9805 1.8560
-0.9060 64.2500 1.6820
-0.8300 63.1719 2.6741
-1.5040 62.8965 2.8621
-2.0260 62.4570 3.1200
-2.4220 61.8594 3.4680
-2.6700 61.0645 3.7820
-3.2480 56.3320 5.3879
-2.5780 56.3848 5.7581
-3.2260 57.7383 5.2219
-2.5760 57.7422 5.5901
-3.0740 58.8359 5.0759
-2.4480 58.7676 5.4580
-2.7720 59.8926 4.8999
-2.1639 59.7500 5.2920
-2.2660 60.7266 4.5581
-1.7220 60.6387 5.0759
-1.5240 61.5313 4.0740
-1.0140 61.3730 4.5801
-3.2159 56.4727 5.5120
-2.5400 56.3867 5.7839
-3.0020 57.7832 5.4680
-2.3440 57.6445 5.7739
-2.7340 58.8203 5.3779
-2.0900 58.6191 5.7700
-2.2960 59.8027 5.2461
-1.7159 59.5586 5.7219
-1.8040 60.6621 5.0520
-1.1960 60.3965 5.5259
-1.0120 61.3770 4.5801
-0.4740 61.0801 5.0820
-0.8580 62.7676 3.1820
-1.3160 61.9258 4.1821
0.1121 62.7070 3.5520
-0.3280 61.8711 4.5659
-1.6899 60.9570 4.9939
-0.6899 60.9336 5.3660
-1.9440 59.9609 5.5559
-0.9561 59.9434 5.9199
-2.1180 58.8496 5.9219
-1.1420 58.8320 6.3000
-2.1801 57.6035 6.0659
-1.2321 57.5898 6.4280
-2.1700 56.4453 6.0701
-1.2540 56.4473 6.3940
0.8500 62.4727 3.5560
0.6379 61.7871 4.5820
1.7640 62.2715 3.6180
1.5420 61.5977 4.6021
0.4399 61.0508 5.3821
1.3400 60.8672 5.3921
0.2440 60.1328 5.9780
1.1320 59.9844 5.9800
0.0760 59.1113 6.3679
0.9620 58.9883 6.3640
-0.0620 58.0215 6.5200
0.8080 57.9082 6.5120
-0.2000 56.7520 6.4399
0.6680 56.6699 6.4280
0.6479 54.8789 6.0000
0.6121 55.8477 6.1279
-0.0140 54.8438 6.0039
-0.0940 55.8105 6.1321
0.6281 56.8008 6.2681
-0.1379 56.8008 6.2720
0.6700 57.8711 6.3081
-0.1240 57.9043 6.3059
0.7560 58.9063 6.1201
-0.0540 58.9805 6.1160
0.8760 59.7754 5.7981
0.0560 59.8770 5.8020
0.9940 60.4805 5.3320
0.1660 60.5918 5.3459
1.1520 61.3418 4.3779
0.3260 61.4941 4.4199
0.6760 55.5215 6.1299
0.4900 56.7773 6.3040
-0.0300 55.3633 6.1521
-0.3380 56.6270 6.3679
0.4080 57.8535 6.4341
-0.5380 57.7734 6.4260
0.4420 58.8340 6.3340
-0.5840 58.8359 6.3059
0.5380 59.8281 6.0381
-0.5000 59.9043 5.9500
0.9180 54.8379 5.7661
1.0800 55.6992 5.9241
0.2740 54.9277 5.8701
0.4041 55.7930 6.0740
1.2841 56.6836 6.0559
0.5601 56.7988 6.2561
1.4960 57.7285 6.0740
0.7120 57.8574 6.3120
1.6479 58.7754 5.9761
0.8199 58.8945 6.1621
1.7300 59.7813 5.6780
0.8840 59.8770 5.8459
1.7340 60.5586 5.0859
0.8800 60.6699 5.2720
1.6700 61.3086 4.2061
0.8199 61.4531 4.4360
0.4680 55.4922 6.1201
0.0980 56.7285 6.3220
-0.2820 55.2676 6.0420
-0.6700 56.5156 6.2219
-0.1680 57.8086 6.4099
-0.9919 57.6621 6.2739
-0.2960 58.8242 6.2981
-1.1379 58.7656 6.1680
-0.2220 59.8320 5.9600
-1.0840 59.8496 5.7800
-0.5520 61.5508 4.2620
-0.8700 60.7617 5.2219
0.3320 61.4980 4.4500
0.0081 60.6914 5.4021
0.4020 55.5938 6.2561
-0.1140 56.6973 6.4141
-0.2760 55.3047 6.1780
-0.8240 56.4082 6.3179
-0.5580 57.7617 6.4260
-1.2980 57.5273 6.2800
-0.8040 58.8066 6.2739
-1.6021 58.6484 6.1079
-0.8621 59.8535 5.8979
-1.6340 59.7773 5.6460
-1.1160 61.6133 4.1160
-1.4540 60.7324 5.0139
-0.3160 61.5879 4.3621
-0.6820 60.7930 5.3059
0.0240 61.6953 4.2639
-0.3080 60.8691 5.3201
1.0620 61.4297 4.3999
0.7340 60.7051 5.4460
4.0460 60.8066 -7.3201
3.0460 61.9023 -7.1321
4.5320 61.2227 -7.2820
3.5380 62.3262 -7.1140
2.1541 62.9609 -6.7300
2.6940 63.3574 -6.7180
1.5620 63.7793 -6.1279
2.1260 64.1660 -6.1521
1.1660 64.4512 -5.2759
1.7419 64.8125 -5.2839
0.9500 64.8613 -4.2241
1.5260 65.2402 -4.2300
0.7820 65.1191 -3.1600
1.3960 65.4609 -3.1500
0.6940 65.1992 -2.0660
1.3160 65.5332 -2.0520
0.6541 65.1094 -0.9400
1.3101 65.4043 -0.9320
0.6720 64.6504 0.0240
1.3920 64.9004 0.0780
0.7500 63.8711 0.8660
1.5120 63.9160 0.7760
1.5640 62.2031 3.5720
1.4041 62.7227 2.8600
1.7120 62.5273 3.7200
1.5480 63.0449 3.0339
1.7620 62.7813 3.9141
1.5920 63.3457 3.2600
1.6899 62.9609 4.1821
1.4680 63.5527 3.5380
1.4860 63.0215 4.4341
1.1920 63.6426 3.8760
1.1021 62.9727 4.7361
0.7500 63.5840 4.2200
0.2939 62.6934 5.2000
-0.1260 63.2832 4.6899
-0.5740 62.2871 5.5459
-1.0040 62.8887 5.0259
-1.4340 61.7871 5.7480
-1.8879 62.3555 5.2119
-2.2620 61.1973 5.8220
-2.7321 61.7578 5.2920
-3.0260 60.5254 5.7939
-3.4960 61.0527 5.2620
-3.6780 59.7695 5.6460
-4.1560 60.2520 5.1279
-4.2119 58.9395 5.4519
-4.7061 59.3828 4.9321
-4.6121 58.0605 5.1760
-5.1160 58.4629 4.6460
-4.8818 57.1465 4.8640
-5.3879 57.5000 4.3340
-5.0320 56.2188 4.5120
-5.5120 56.5273 3.9640
-5.0640 55.2773 4.1421
-5.5459 55.5664 3.5701
-5.0581 54.3340 3.7280
-5.5059 54.5938 3.1600
-4.9600 53.2695 3.2440
-5.4102 53.5117 2.6880
1.2760 63.1602 2.3900
1.4200 63.6504 2.5400
1.2500 63.4922 1.7240
1.3640 63.8770 1.8220
1.7340 63.9141 2.6140
1.6340 64.2383 1.9080
2.2620 63.9941 2.6160
2.1960 64.3320 1.8840
2.8900 63.8438 2.5181
2.8180 64.1914 1.7800
3.7280 63.4434 2.2419
3.6400 63.8164 1.5220
4.6699 62.8184 1.7640
4.5120 63.1680 1.0300
5.5581 61.9629 1.0220
5.3621 62.3906 0.3420
6.2959 61.0234 0.0900
6.0781 61.4961 -0.5580
6.9141 60.0586 -0.9660
6.6780 60.5742 -1.5800
7.4438 59.0762 -2.1140
7.1738 59.5781 -2.6820
7.8420 57.9414 -3.4280
7.5120 58.4297 -3.9360
7.8940 56.7207 -4.7219
7.5659 57.2520 -5.1821
0.8440 62.4082 3.4819
1.1700 62.7461 3.8140
0.8140 62.9414 2.8359
1.2061 63.5273 3.1660
1.5840 62.8691 4.0220
1.7440 63.7266 3.3420
2.0980 62.8477 4.1719
2.4580 63.6602 3.4160
2.7560 62.6406 4.2061
3.1720 63.4395 3.4241
3.6600 62.1797 4.1021
4.1160 62.9121 3.3120
4.4460 61.5566 3.8820
4.9280 62.2402 3.1080
5.0320 60.7891 3.6300
5.5762 61.4355 2.8740
5.4521 59.9453 3.3800
6.0320 60.3926 2.5680
5.7842 58.8789 3.1240
6.3081 59.1875 2.2700
5.9839 57.5605 2.8420
6.4280 57.7676 1.9780
1.1479 61.9844 3.8960
1.2900 62.1895 4.3000
1.5560 62.5918 3.0281
1.7120 62.9063 3.5701
1.5900 62.1777 4.6760
2.1320 62.9023 4.0560
2.0680 61.9570 5.0200
2.6440 62.5938 4.3059
2.8440 61.3477 5.2820
3.3781 61.9863 4.4700
3.6460 60.6094 5.2861
4.1318 61.2324 4.4360
4.4260 59.7617 5.0659
4.8062 60.4023 4.1621
4.9741 58.9414 4.6660
5.3660 59.6035 3.7939
5.3901 58.0996 4.1260
5.7939 58.7500 3.3120
5.7041 57.2500 3.5500
6.0879 57.8613 2.7700
5.9480 56.2520 2.8240
6.3101 56.8262 2.1100
1.8040 63.0605 3.1440
1.7540 63.4180 2.4680
1.8101 63.5645 3.2820
1.7220 63.8496 2.6060
1.5140 63.9551 3.4220
1.4280 64.1973 2.7419
1.0220 64.1504 3.5339
0.9659 64.3828 2.8440
0.3500 64.2402 3.6379
0.2700 64.4883 2.9340
-0.6899 64.1797 3.7061
-0.7700 64.4277 2.9940
-1.7020 63.9746 3.7100
-1.8000 64.2188 2.9761
-2.6720 63.6035 3.6460
-2.7640 63.8359 2.9041
-3.5740 63.1094 3.5520
-3.6740 63.3301 2.8020
-4.3682 62.4746 3.4420
-4.4780 62.6621 2.6860
-5.1580 61.5801 3.3340
-5.2681 61.7227 2.5620
-5.7842 60.3867 3.2319
-5.8818 60.4688 2.4500
-6.1821 59.0547 3.1360
-6.3000 59.1035 2.3700
-6.3359 57.5488 3.0601
-6.4380 57.5703 2.2900
-6.2642 56.0684 2.9880
-6.3599 56.0781 2.2140
-6.0581 54.6973 2.9299
-6.1182 54.7246 2.1680
-5.6360 53.3242 2.8521
-5.7100 53.3594 2.1040
7.0859 57.1699 -5.2461
7.7800 57.1680 -5.1980
6.9639 58.4355 -4.1060
7.6421 58.4766 -4.0400
6.6680 59.5332 -3.1100
7.3281 59.6445 -2.9819
6.1980 60.5879 -2.1221
6.8140 60.7500 -1.9440
5.5959 61.6094 -1.1820
6.1738 61.8262 -0.9520
4.8359 62.5254 -0.2960
5.3501 62.8047 0.0040
3.9200 63.2891 0.4980
4.3320 63.6426 0.9020
3.2419 63.6719 0.9380
3.4960 64.0586 1.4460
2.6240 63.8145 1.1860
2.6801 64.1934 1.7900
2.3260 63.7773 1.2280
2.1840 64.0840 1.8800
1.8480 63.3359 1.2720
1.4200 63.3789 1.8660
9.6719 41.0840 3.0200
6.4919 48.2715 0.0160
6.1621 48.1504 0.7820
5.9800 47.6289 1.3820
6.2061 46.8457 2.1160
6.1099 46.2500 1.7540
6.2600 45.7344 1.4200
6.1099 45.8496 0.9000
6.4880 46.1387 0.2040
6.1021 46.5664 0.3960
6.2139 46.6055 0.2380
6.0601 47.1152 0.3040
8.2861 57.0000 -3.9480
8.5059 56.2012 -3.5181
9.0059 56.5859 -3.9980
8.7520 55.7246 -3.3979
9.5117 55.9102 -3.9160
8.8359 55.1445 -3.2400
9.6680 55.0508 -3.7300
8.6421 54.0059 -2.8900
9.4980 53.8457 -3.4460
8.4980 52.8223 -2.5880
9.3560 52.6738 -3.1840
8.5400 51.7852 -2.5220
9.3760 51.7813 -3.1860
8.8521 50.5332 -2.7061
9.6563 50.5391 -3.2581
9.2998 49.4160 -2.6720
10.0840 49.4648 -2.9500
9.7500 48.5820 -2.2360
10.3877 48.7695 -2.4540
9.9277 48.0371 -1.3860
10.5723 48.3711 -1.5400
9.9341 47.9375 -0.8460
10.5840 48.3398 -0.6160
9.9180 47.9219 -0.2460
10.5117 48.3242 0.0660
9.7578 47.9512 0.6280
10.3682 48.1543 0.8520
9.5820 47.8398 1.1320
10.2617 47.9141 1.4100
9.4199 47.6074 1.6020
10.8179 47.4609 2.0500
9.0820 46.7695 2.1760
10.4600 46.5996 2.5160
8.7480 45.3340 2.5959
10.1260 45.3457 2.8740
8.6060 44.5352 2.8101
10.9141 48.5742 -2.9160
10.6060 49.1992 -3.5840
11.0479 47.8281 1.5700
11.2222 48.0605 1.0440
11.3521 48.1758 0.3420
11.4082 48.2539 -0.4480
11.2520 48.3535 -1.8100
10.8379 47.7441 -3.4360
10.5879 48.4883 -4.2720
10.2461 49.3848 -4.6021
10.1680 50.4277 -3.9819
9.8682 50.2734 -4.6719
9.8320 51.3926 -4.0740
9.5918 51.2559 -4.6960
11.0000 47.4063 -2.2960
9.9102 43.9180 3.3840
8.5679 43.6992 3.1960
9.9639 42.8770 4.1421
8.7197 42.5195 4.0859
10.3037 42.0000 5.0281
9.1563 41.5664 5.0959
10.9922 41.1875 5.8760
9.7661 40.7266 5.8259
11.7080 40.4160 6.3401
10.3779 39.8066 6.2439
10.9180 38.8770 6.4939
12.2578 39.4082 6.4719
11.2422 37.9297 6.4961
12.5679 38.3398 6.3640
11.4819 36.9375 6.3240
12.7339 37.1699 6.1260
11.6079 35.3008 5.9961
12.6738 35.3809 5.7661
11.6079 33.2441 5.5520
12.3940 33.2676 5.3120
11.4839 31.0664 4.8281
11.9980 31.0723 4.7061
5.8040 47.0098 1.2820
5.8879 46.3945 1.1000
5.9102 47.1016 0.5420
6.1079 47.6133 0.3160
5.9380 47.6621 0.7020
6.2920 48.0313 0.2120
9.7759 51.9766 -4.1479
9.5220 51.8555 -4.7520
9.8979 52.5313 -4.2739
9.6299 52.4277 -4.8640
10.2700 53.7129 -4.6060
9.8999 53.6348 -5.1660
10.3418 54.7852 -4.8159
9.9302 54.5918 -5.3560
10.1680 55.7930 -4.9519
9.7358 55.4336 -5.4219
9.6318 56.6680 -4.9441
9.2500 56.0762 -5.3059
8.7358 57.0781 -4.7419
8.4697 56.4199 -5.0801
9.9121 50.4844 -3.6200
9.2822 51.2734 -3.2900
9.7100 51.2305 -3.6700
9.7100 51.8613 -3.6360
9.2422 51.9824 -3.2100
9.8740 52.4941 -3.6460
9.3940 52.6738 -3.2020
10.3921 53.2969 -3.6741
9.8877 53.5020 -3.2280
10.7441 54.1406 -3.7380
10.2080 54.2852 -3.2860
10.8760 54.9980 -3.8140
10.3359 55.0352 -3.3600
10.7803 55.8652 -3.9100
10.2681 55.7246 -3.4540
10.4019 56.6191 -4.0120
9.6060 51.9043 -3.3920
9.5918 51.2695 -3.4800
9.5400 51.8555 -3.9761
9.7100 51.1855 -4.0239
8.7222 57.2773 -4.4961
8.6777 57.4707 -3.9600
9.6680 57.1641 -3.8340
9.6279 56.9805 -4.4441
10.3320 56.5801 -3.7520
10.1802 56.4473 -4.3599
10.7041 55.8516 -3.6460
10.4941 55.7656 -4.2600
10.8018 55.0254 -3.5460
10.5562 54.9531 -4.1760
10.6860 54.1660 -3.4661
10.3682 54.2070 -4.1099
10.3281 53.3125 -3.4120
10.0239 53.4102 -4.0380
9.7998 52.5195 -3.3900
9.6123 52.5918 -3.9880
9.9678 56.3223 -3.5620
9.7500 57.2285 -4.0780
9.4180 56.7793 -3.6920
8.7280 57.5273 -4.1360
8.5742 57.0547 -3.8201
11.2598 25.9395 8.8081
11.2339 27.8789 8.2842
10.6499 29.8926 8.2139
9.7339 30.9570 8.1799
9.8599 32.0391 8.1121
9.9180 33.3379 7.5759
10.0918 34.5098 6.7361
10.7681 32.9863 7.2561
10.9541 34.0547 6.3940
10.9399 32.5391 6.3879
11.0898 33.5000 5.4541
10.6841 31.7539 7.8599
10.9302 31.4063 7.1980
11.1021 29.7324 7.8679
8.2842 42.5879 2.3580
8.1602 43.3730 2.5281
8.2578 44.3281 2.6360
8.4902 45.1621 2.5420
8.7241 45.8574 2.2820
8.9780 46.5547 1.7340
8.9580 47.0625 0.8920
10.3760 35.5527 6.0801
10.6099 36.5820 5.9380
11.4219 36.1152 5.4939
11.3281 35.4824 4.2920
11.2739 34.4727 4.6741
11.1543 36.5059 4.1980
11.1899 35.0840 5.6899
8.2080 42.9746 0.5180
7.9800 43.8984 -0.2620
7.7000 22.4727 11.3682
7.9639 21.9668 10.7881
8.9082 24.2012 10.2222
9.2300 23.7520 9.6162
9.7319 26.0000 9.5200
10.1479 25.7070 8.7939
10.6738 27.7617 8.4160
10.2080 28.0332 9.0381
10.8418 29.2637 8.2861
10.3242 29.4668 8.8359
10.2900 30.8223 8.7139
10.7900 30.6719 8.1179
10.1582 32.1035 8.5078
10.5601 31.9727 7.8821
10.0220 33.4434 8.1079
10.3179 33.2773 7.4341
9.9360 34.7480 7.6641
10.2319 34.5313 6.9600
10.0479 36.0313 7.2500
10.4082 35.7539 6.5701
10.3682 37.0234 6.9121
10.7241 36.6680 6.2620
10.9697 37.8477 6.5481
11.2402 37.5918 5.8401
11.6602 38.4609 6.0339
12.1582 37.7402 4.9380
12.1479 39.1348 5.2681
12.4722 38.2598 4.4441
12.3579 39.9082 3.9399
12.4561 38.9434 3.3459
11.9321 39.3652 2.5500
11.2803 40.1133 2.1221
11.1699 39.7676 1.9360
11.6919 40.6133 1.4820
11.9902 40.3320 2.3400
9.4941 36.0020 6.9199
10.2617 35.9941 7.2461
9.8062 37.0293 6.6121
10.5781 36.9727 6.9241
10.3081 37.9277 6.3479
11.1143 37.8105 6.5300
10.7700 38.6426 6.0879
11.2441 39.3789 5.6160
11.5000 40.2051 4.6919
11.3921 40.9434 3.4000
7.3879 22.3672 10.8960
8.0142 22.3027 11.3481
8.5698 24.1016 9.7300
9.2319 24.0293 10.2158
9.3320 25.9688 8.9980
10.0381 25.8965 9.4561
9.7959 27.9883 8.5918
10.5278 27.9551 9.0161
9.9160 29.3828 8.4063
10.6602 29.4316 8.8242
9.8779 30.7344 8.2979
10.6479 30.8086 8.6880
9.7339 32.0273 8.1499
10.4697 32.0938 8.4639
9.5098 33.3359 7.7280
10.2222 33.4219 8.0139
9.3760 34.6758 7.2900
10.1563 34.7129 7.5979
11.7998 37.2168 5.3560
11.4019 36.3730 5.8379
10.7358 36.6621 6.2339
11.1982 35.5020 6.2939
10.5142 35.7051 6.6421
11.1758 34.4180 6.7881
10.4741 34.5156 7.0959
11.2661 33.2070 7.2439
10.6162 33.2461 7.5259
11.3799 32.0098 7.5061
10.8179 31.9941 7.7581
11.5181 30.6230 7.5959
11.0278 30.6074 7.8359
11.2778 48.4805 -0.3580
11.0059 47.4805 -0.6780
11.1338 48.4531 0.3060
10.6279 47.4824 0.6900
10.8960 48.3789 0.9800
10.5820 48.1895 1.5820
10.4600 47.3770 1.1120
10.1563 47.8125 2.1500
10.3062 47.1211 1.4420
9.6079 46.9961 2.7200
10.0859 46.3906 1.8700
9.3579 46.2695 2.9260
9.8643 45.0293 2.1260
9.1519 45.4844 3.0520
9.0498 44.6113 3.2000
9.8301 43.6152 2.6360
9.0259 43.8496 3.5360
10.0640 42.4883 3.5339
9.1860 42.8242 4.4700
10.4082 41.6445 4.4260
9.7041 41.9961 5.3740
10.8457 40.7813 5.2461
10.5859 41.1797 6.2400
11.2461 39.9473 5.6521
11.4019 40.3320 6.6641
11.7617 39.0742 5.7361
11.9341 39.3281 6.7681
12.1460 38.1816 5.6201
12.2700 38.2559 6.6479
12.3701 37.2500 5.4399
12.4238 37.0625 6.4219
12.4902 35.5156 5.1079
12.5142 35.3496 6.0361
12.2939 33.0332 4.6360
12.2700 32.8770 5.4241
-3.0640 44.8867 -7.1621
-3.7620 44.9883 -6.7241
-2.8060 47.1094 -6.9480
-3.5000 47.0781 -6.5259
-2.8979 49.1309 -6.5000
-3.6080 48.9570 -6.0979
-3.2720 50.9727 -6.1521
-3.9680 50.7656 -5.7241
-3.7939 52.7168 -5.9700
-4.4060 52.4395 -5.4519
-4.2861 54.3438 -5.7100
-4.8179 54.0391 -5.0979
-4.5801 55.7559 -5.2681
-5.0620 55.4277 -4.6140
-4.8020 57.2695 -4.6021
-5.1299 56.8457 -3.9041
-4.8840 55.5957 -4.9761
-4.6760 56.7969 -3.6100
-5.0142 57.1270 -4.4141
-4.5720 55.3105 -4.1660
-4.6580 54.1660 -5.4460
-4.3420 54.0195 -4.6021
-4.2319 52.5527 -5.8000
-3.9139 52.4766 -4.9639
-3.7900 50.8516 -6.0920
-3.4041 50.7383 -5.2419
-3.4659 49.0586 -6.4800
-3.0200 48.8945 -5.6621
-3.4240 47.1484 -6.9321
-2.8860 46.9707 -6.1841
-3.7280 45.0254 -7.2380
-3.1180 44.8555 -6.5601
-0.8060 55.7773 -7.6160
0.0520 55.7676 -7.6379
-0.7800 54.1914 -7.4280
-0.0081 54.2012 -7.1221
-0.7159 52.6074 -7.3799
0.0341 52.6230 -6.9260
-0.5740 51.0273 -7.4141
0.1040 51.0352 -6.9441
-0.4139 49.4121 -7.6821
0.2220 49.3574 -7.2000
-0.2280 47.8555 -8.1719
0.3900 47.7461 -7.7119
-0.0460 46.2891 -8.6460
0.5460 46.1758 -8.2000
0.0580 44.6523 -8.9502
0.6281 44.6152 -8.5039
0.4880 44.7051 -9.0239
0.1000 44.5566 -8.4302
0.2460 46.3320 -8.6899
-0.1920 46.1211 -8.1379
0.0280 47.8926 -8.1960
-0.4960 47.6797 -7.6479
-0.1940 49.4336 -7.6799
-0.7780 49.3027 -7.1479
-0.3640 51.0469 -7.4099
-1.0100 50.9785 -6.8779
-0.4800 52.6211 -7.3799
-1.1840 52.5938 -6.8501
-0.5140 54.2051 -7.4541
-1.2960 54.1914 -7.0439
-0.5840 55.7813 -7.6221
-1.3879 55.7637 -7.3560
0.2159 44.8594 -9.3140
-0.1620 44.7383 -8.8462
0.4420 46.3555 -8.6719
-0.0341 46.2109 -8.2222
0.5580 47.8867 -8.1221
0.0460 47.7793 -7.6521
0.6060 49.4453 -7.6221
0.0480 49.3672 -7.2061
0.5840 51.0723 -7.4060
-0.0660 51.0313 -7.0439
0.5179 52.6465 -7.4299
-0.2061 52.6152 -7.0959
0.4561 54.2227 -7.5081
-0.3060 54.1973 -7.2119
0.3680 55.7715 -7.7319
-0.4580 55.7715 -7.5020
0.1520 55.7695 -7.7241
0.9020 55.7578 -7.4141
0.2220 54.2148 -7.5459
0.9020 54.2227 -7.1421
0.3020 52.6289 -7.4839
0.9740 52.6484 -7.0540
0.3719 51.0664 -7.4639
1.0280 51.0508 -7.0081
0.3820 49.4531 -7.6541
1.0260 49.3594 -7.1941
0.3199 47.9063 -8.1260
0.9080 47.7324 -7.6799
0.1620 46.3965 -8.6602
0.7000 46.1504 -8.2422
-0.1479 44.9492 -9.2798
0.3120 44.6348 -8.8818
-2.0280 55.7715 -7.2681
-1.1740 55.7676 -7.4199
-1.9840 54.1973 -7.0601
-1.1360 54.1934 -6.9419
-1.8740 52.6191 -7.0139
-1.0380 52.6328 -6.8101
-1.7380 51.0078 -7.1240
-0.9700 50.9688 -6.8059
-1.7159 49.3867 -7.4121
-0.9740 49.3008 -7.0281
-1.7841 47.8418 -7.9419
-1.0760 47.6699 -7.5361
-1.9360 46.3262 -8.4761
-1.2720 46.0703 -8.0959
-2.2841 44.7754 -8.9902
-1.6121 44.5449 -8.6641
-1.7620 44.7754 -9.1143
-2.2800 44.5293 -8.5420
-1.5920 46.2891 -8.5581
-2.0780 46.0820 -7.9800
-1.4860 47.8398 -8.0000
-2.0160 47.6445 -7.3860
-1.4580 49.4004 -7.4761
-2.0220 49.2578 -6.8201
-1.5341 51.0215 -7.1841
-2.1021 50.9746 -6.5420
-1.5959 52.6328 -7.1021
-2.2900 52.6074 -6.4980
-1.6960 54.2148 -7.1621
-2.4440 54.1855 -6.5901
-1.7960 55.7773 -7.3159
-2.6180 55.7480 -6.8540
0.7720 46.1465 -7.8660
1.2400 44.6465 -8.7681
0.6360 44.5586 -8.2598
1.4260 46.2168 -8.3101
0.8540 47.7285 -7.4280
1.5360 47.8047 -7.8459
0.8600 49.3418 -7.0200
1.5880 49.4004 -7.4060
0.7960 51.0195 -6.8701
1.5380 51.0469 -7.2200
0.6920 52.6309 -6.9839
1.4659 52.6641 -7.1880
0.5720 54.1953 -7.2539
1.3900 54.2305 -7.2419
0.5280 55.7480 -7.5500
1.3320 55.7891 -7.4341
1.0940 55.7852 -7.4980
1.8560 55.7871 -7.2839
1.1260 54.2129 -7.2820
1.8199 54.2559 -6.9121
1.2200 52.6504 -7.2539
1.8879 52.6719 -6.8081
1.2880 51.0391 -7.2319
1.9240 51.0234 -6.7839
1.2800 49.4063 -7.4121
1.9080 49.3145 -6.9561
1.1940 47.8203 -7.8320
1.7960 47.6738 -7.3979
1.0200 46.2539 -8.2778
1.5920 46.0645 -7.8760
0.7020 44.7070 -8.7100
1.2460 44.4824 -8.3062
2.2180 55.7813 -7.2200
2.7760 55.7754 -6.7539
2.2240 54.2383 -7.0701
2.7560 54.2734 -6.5581
2.2480 52.6563 -6.9919
2.7400 52.6602 -6.4380
2.2120 51.0957 -6.9719
2.6899 51.0371 -6.4500
2.1060 49.4922 -7.1641
2.5720 49.3477 -6.6699
1.9580 47.9434 -7.6121
2.3960 47.7656 -7.1360
1.7360 46.4180 -8.1221
2.1479 46.2109 -7.6580
1.5100 45.2207 -8.5342
1.9220 45.0547 -8.0840
1.5460 46.2793 -7.7061
1.8860 45.1934 -8.5122
1.4680 45.0879 -8.1060
1.9800 46.3887 -8.1121
1.6500 47.8535 -7.2439
2.1580 47.9199 -7.5940
1.7120 49.4414 -6.8359
2.2939 49.4727 -7.1221
1.7440 51.0820 -6.6880
2.3979 51.0879 -6.9219
1.7321 52.6602 -6.7759
2.4540 52.6719 -6.9099
1.6780 54.2344 -6.9460
2.4340 54.2520 -7.0039
1.6021 55.7656 -7.3401
2.3521 55.7949 -7.1179
3.0260 55.7754 -6.6541
3.5540 55.7676 -6.1121
3.0800 54.2656 -6.5740
3.5320 54.2969 -5.9861
3.1320 52.6074 -6.4861
3.5100 52.6152 -5.8921
3.0620 51.0488 -6.4160
3.4320 51.0000 -5.8440
2.9301 49.4375 -6.6479
3.2800 49.2734 -6.0940
2.7660 47.8379 -7.2959
3.0900 47.5996 -6.8101
2.5920 46.1211 -8.2300
2.9000 45.8574 -7.7739
-5.4658 56.4297 -3.1860
-5.3179 55.0605 -3.8420
-5.1121 53.7773 -4.3240
-4.8621 54.0645 -5.1201
-4.8301 52.2891 -4.7041
-4.5679 52.5391 -5.4880
-4.5300 50.7051 -5.0020
-4.2500 50.9570 -5.7881
-4.2739 49.0352 -5.3599
-3.9760 49.3027 -6.1221
-4.2180 47.5039 -5.7720
-3.8900 47.7324 -6.5220
-4.4419 45.5371 -6.3179
-4.1000 45.6914 -7.0720
2.4020 47.7305 -7.0459
3.0320 46.0488 -8.1099
2.3940 45.9434 -7.9360
3.0520 47.7871 -7.2261
2.4640 49.4004 -6.4441
3.1560 49.4043 -6.5720
2.5560 51.0527 -6.3000
3.2581 51.0508 -6.3240
2.6040 52.6328 -6.4480
3.3080 52.6523 -6.3621
2.6121 54.2578 -6.6599
3.2760 54.2793 -6.4561
2.5800 55.7676 -6.8901
3.2000 55.7793 -6.5181
3.8180 55.7598 -5.9880
4.2358 55.7598 -5.3579
3.8660 54.2813 -5.9500
4.2539 54.2754 -5.3301
3.8120 52.5762 -5.9460
4.2021 52.5430 -5.3320
3.5861 51.0156 -6.0581
3.9760 50.8867 -5.4399
3.3199 49.5039 -6.3999
3.7020 49.2871 -5.8020
3.0400 48.0723 -6.9800
3.3640 47.7871 -6.4399
2.6820 46.5605 -7.7959
2.9780 46.2344 -7.3159
3.9659 55.7676 -5.7539
4.0160 54.2793 -5.7759
3.4659 55.7598 -6.1860
3.4080 54.2813 -6.0620
3.9561 52.5664 -5.7581
3.2880 52.5742 -5.9719
3.7740 50.9707 -5.8420
3.1000 51.0098 -5.9900
3.5480 49.4023 -6.1541
2.9000 49.4922 -6.2800
3.3120 47.9375 -6.7561
2.6920 48.0176 -6.8120
3.0861 46.3887 -7.5859
2.5020 46.4160 -7.5239
4.6541 55.7617 -4.6741
4.7720 54.3066 -4.6919
4.2061 55.7617 -5.4561
4.3560 54.2793 -5.4680
4.7681 52.4941 -4.6560
4.3540 52.5195 -5.3940
4.5859 50.6895 -4.7261
4.2339 50.8535 -5.4861
4.3660 49.0469 -5.0940
4.0560 49.3047 -5.8040
4.2461 47.5156 -5.7600
3.8900 47.8203 -6.4021
4.2419 46.2344 -6.4761
3.8060 46.5430 -7.0601
3.6320 47.7520 -6.2480
4.2881 46.3965 -6.7319
3.6880 46.3789 -6.8059
4.2080 47.6445 -6.0239
3.7180 49.2715 -5.6799
4.2881 49.1602 -5.3999
3.8580 50.8320 -5.3901
4.4658 50.7734 -5.0540
3.9760 52.4980 -5.3660
4.5959 52.5117 -4.9819
4.0081 54.2813 -5.4619
4.6040 54.2949 -5.0381
4.0460 55.7637 -5.5601
4.6001 55.7734 -5.0720
-2.8340 54.2031 -6.5581
-3.5420 55.7695 -6.1680
-2.9260 55.7734 -6.7261
-3.3781 54.2031 -5.9519
-2.7380 52.6387 -6.4661
-3.2740 52.6133 -5.8621
-2.6639 50.9648 -6.5039
-3.1801 50.9180 -5.9219
-2.6639 49.3555 -6.7600
-3.1680 49.2559 -6.1980
-2.8120 47.7715 -7.2061
-3.2820 47.6895 -6.6460
-3.0720 46.2480 -7.6421
-3.5040 46.2246 -7.0901
-3.5120 44.7031 -8.0220
-3.9041 44.7012 -7.4839
-3.3660 44.5645 -7.6140
-3.9440 44.8223 -7.8940
-2.7740 46.0996 -7.2981
-3.3719 46.3242 -7.6121
-2.4120 47.6758 -6.9141
-3.0620 47.8555 -7.2219
-2.1780 49.2949 -6.5620
-2.9080 49.3770 -6.7881
-2.1000 50.9531 -6.4360
-2.8621 50.9629 -6.5000
-2.1639 52.6289 -6.5161
-2.8920 52.6328 -6.3999
-2.2600 54.1953 -6.6719
-2.9520 54.2012 -6.4480
-2.3781 55.7656 -6.9780
-3.0680 55.7695 -6.6479
-3.4720 44.6660 -7.7881
-4.1360 44.6934 -7.4419
-3.1360 46.2227 -7.2119
-3.7660 46.1484 -6.7861
-3.0081 47.7637 -6.6521
-3.6600 47.6504 -6.2000
-3.0140 49.3164 -6.1799
-3.6580 49.1934 -5.6941
-3.1740 50.9082 -5.9299
-3.8280 50.7871 -5.4321
-3.4340 52.5762 -5.9141
-4.0620 52.4922 -5.3599
-3.6639 54.2168 -5.8860
-4.2559 54.1094 -5.2839
-3.8540 55.7695 -5.8640
-4.4019 55.6816 -5.2100
-3.9320 54.1777 -5.7019
-4.2979 55.6719 -4.7139
-4.0861 55.7285 -5.6299
-4.0540 54.1133 -4.7539
-3.7500 52.5391 -5.7439
-3.8020 52.4863 -4.7939
-3.4980 50.8555 -5.7939
-3.4940 50.7930 -4.8901
-3.3719 49.2969 -6.0640
-3.3280 49.0566 -5.2000
-3.3260 47.7969 -6.5920
-3.3140 47.4707 -5.8020
-3.4440 46.3301 -7.2361
-3.4340 45.9375 -6.4780
-3.8140 44.8633 -7.9780
-3.8480 44.4629 -7.2561
-3.3340 44.7148 -7.8579
-3.9821 44.8145 -7.4761
-2.9420 46.2422 -7.6040
-3.5980 46.3027 -7.2041
-2.7300 47.8223 -7.2561
-3.4020 47.7754 -6.8301
-2.6219 49.3789 -6.8860
-3.3080 49.3066 -6.4600
-2.6780 51.0313 -6.6621
-3.3600 50.9766 -6.1980
-2.8000 52.6582 -6.5559
-3.4700 52.5859 -6.0320
-2.8979 54.2129 -6.4961
-3.5680 54.1680 -5.9719
-3.0900 55.7715 -6.5740
-3.7400 55.7754 -5.9939
-3.2660 54.1973 -6.2681
-3.9919 55.7656 -5.6541
-3.4139 55.7754 -6.3420
-3.7159 54.1387 -5.5020
-3.1219 52.6230 -6.3560
-3.5020 52.4961 -5.5559
-2.9700 51.0215 -6.5200
-3.3361 50.8652 -5.7261
-2.8900 49.3730 -6.8281
-3.2380 49.1699 -6.0339
-2.9680 47.8340 -7.2041
-3.3340 47.6270 -6.4519
-3.2140 46.3281 -7.6299
-3.5060 46.1641 -6.8779
-3.5660 44.8555 -8.0759
-3.8840 44.7285 -7.3159
19.0420 29.1152 -3.4460
19.0078 30.1699 -2.0640
17.0703 30.7402 -3.6140
12.2520 35.5078 -3.6260
9.8721 38.1719 -2.5720
9.6499 37.9219 -3.7939
12.9502 36.1738 -1.9160
14.4160 33.2422 -3.5959
15.1362 33.9082 -1.9561
17.7002 31.3516 -1.9821
18.6016 32.2109 -1.6260
19.7754 30.9414 -1.7700
19.3105 32.9277 -1.9640
20.4844 31.6211 -2.0720
19.8457 33.4707 -2.6899
21.0898 31.9902 -2.8000
21.5938 32.0645 -3.7820
20.0254 33.6836 -3.7540
19.7920 33.4551 -4.8340
17.2773 36.1211 -4.8860
16.7363 35.6074 -5.6938
10.7422 39.0508 -1.6260
11.8882 40.0371 -1.2900
13.8760 37.0840 -1.3500
16.0498 34.8203 -1.4100
16.8379 35.6074 -1.7460
17.3496 36.1445 -2.6219
17.5342 36.3574 -3.7540
15.1162 38.3574 -4.8818
14.5322 37.8477 -5.7480
12.1558 40.3008 -5.7261
12.8599 40.8477 -5.1240
11.2881 39.5605 -6.0879
13.6338 36.9648 -6.1440
10.3682 38.7344 -6.1340
12.6499 35.9531 -5.8420
9.9019 38.2305 -5.4680
14.8901 33.7637 -5.7400
17.5215 31.2188 -5.3940
19.3242 29.1289 -4.3960
19.7959 29.2773 -5.1899
20.6719 29.9219 -5.7661
18.4600 32.1680 -5.8340
15.8379 34.7188 -6.0940
19.2500 32.9492 -5.5520
21.6758 31.6309 -4.8459
21.3418 30.8555 -5.5181
13.2881 41.1641 -4.4380
15.3979 38.6348 -3.7480
15.1680 38.4668 -2.5640
14.6841 37.9551 -1.6600
12.7061 40.7012 -1.8500
13.3198 41.1738 -2.7159
13.5239 41.3301 -3.7100
4.9141 53.1504 -1.5560
5.3979 53.1914 -1.1000
4.9160 53.1289 -1.5540
-5.2598 53.2793 -1.0120
-5.2920 53.1777 -0.9520
-5.2339 53.1738 -0.9880
-5.3159 53.2793 -0.9780
-5.3198 53.4492 -1.0760
-5.3662 53.4453 -1.0440
-5.3159 53.5586 -1.0660
-5.3560 53.5547 -1.0360
-5.2778 53.6172 -1.0120
-5.3042 53.6172 -0.9900
-5.2559 53.7129 -0.9780
-5.2798 53.7109 -0.9580
-5.3120 53.7715 -1.0420
-5.3599 53.7695 -1.0040
-5.3560 53.8008 -1.0980
-5.4058 53.7969 -1.0600
-5.4082 53.9297 -1.1540
-5.4482 53.9199 -1.1200
-5.4722 53.8594 -1.1340
-5.4561 53.7793 -1.0740
-5.3960 53.7402 -0.9940
-5.4121 53.6660 -0.9920
-5.4180 53.5527 -1.0480
-5.4858 53.6797 -1.1160
-5.4800 53.5547 -1.1280
-5.4282 53.4355 -1.0600
-5.3818 53.1250 -0.9780
-5.2822 53.1406 -0.8880
-5.2402 53.1621 -0.8860
-5.2559 53.0840 -0.8520
-5.2061 53.1035 -0.8480
-5.2021 53.0215 -0.8460
-5.1602 53.1035 -0.8960
-5.1538 53.0254 -0.8940
-5.2280 52.9570 -0.8840
-5.1782 52.9648 -0.9300
-5.1880 53.1543 -0.9300
-5.3901 52.7578 -1.1040
-5.3379 52.7637 -1.1480
-5.3359 52.6543 -1.1600
-5.3940 52.6484 -1.1140
-5.4199 52.7988 -1.0820
-5.4482 52.7520 -1.1360
-5.5361 53.0645 -1.1260
-5.5859 52.9844 -1.3120
-5.5942 53.0664 -1.3260
-5.5479 53.0723 -1.3960
-5.5762 53.1309 -1.3080
-5.5322 53.1406 -1.3700
-5.5498 53.1523 -1.2840
-5.5059 53.1582 -1.3340
-5.5439 53.3398 -1.2500
-5.4941 53.3418 -1.3060
-5.4702 53.5625 -1.1820
-5.4341 53.5645 -1.2140
-5.5361 53.3359 -1.1540
-5.4722 53.6875 -1.1740
-5.2661 53.0020 -0.8620
-5.4360 53.6895 -1.2080
-5.4238 53.8652 -1.1800
5.5322 53.1406 -1.3700
5.5762 53.1309 -1.3080
5.5479 53.0723 -1.3960
5.5498 53.1523 -1.2840
5.5059 53.1582 -1.3340
5.5439 53.3398 -1.2500
5.4941 53.3418 -1.3060
5.4702 53.5625 -1.1820
5.4341 53.5645 -1.2140
5.4722 53.6875 -1.1740
5.4360 53.6895 -1.2080
5.4238 53.8652 -1.1800
5.4722 53.8594 -1.1340
5.4082 53.9297 -1.1540
5.4482 53.9199 -1.1200
5.4058 53.7969 -1.0600
5.4561 53.7793 -1.0740
5.3960 53.7402 -0.9940
5.4121 53.6660 -0.9920
5.2798 53.7109 -0.9580
5.4858 53.6797 -1.1160
5.4800 53.5547 -1.1280
5.3901 52.7578 -1.1040
5.4199 52.7988 -1.0820
5.2280 52.9570 -0.8840
5.2661 53.0020 -0.8620
5.5361 53.0645 -1.1260
5.3818 53.1250 -0.9780
5.5361 53.3359 -1.1540
5.4282 53.4355 -1.0600
5.4180 53.5527 -1.0480
5.2021 53.0215 -0.8460
5.2559 53.0840 -0.8520
5.2822 53.1406 -0.8880
5.2061 53.1035 -0.8480
5.2402 53.1621 -0.8860
5.2920 53.1777 -0.9520
5.3159 53.2793 -0.9780
5.3662 53.4453 -1.0440
5.3560 53.5547 -1.0360
5.3042 53.6172 -0.9900
5.2559 53.7129 -0.9780
5.2778 53.6172 -1.0120
5.3159 53.5586 -1.0660
5.3198 53.4492 -1.0760
5.2578 53.2793 -1.0120
5.2339 53.1738 -0.9880
5.1880 53.1543 -0.9300
5.1602 53.1035 -0.8960
5.1538 53.0254 -0.8940
5.3560 53.8008 -1.0980
5.3599 53.7695 -1.0040
5.3120 53.7715 -1.0420
5.1782 52.9648 -0.9300
5.3379 52.7637 -1.1480
5.3359 52.6543 -1.1600
5.3940 52.6484 -1.1140
5.4482 52.7520 -1.1360
5.5859 52.9844 -1.3120
5.5942 53.0664 -1.3260
5.5298 52.9766 -1.3800
5.3721 52.7480 -1.1940
5.3618 52.6543 -1.1920
5.4199 52.6484 -1.1480
-1.8701 -62.6738 4.5339
-2.6240 -61.2148 3.1221
-2.7539 -61.5664 4.5361
-1.8198 -62.6211 3.0959
-2.6021 -60.7109 1.5980
-2.1079 -62.4336 1.5360
-2.7158 -59.1855 -1.4940
-2.5298 -61.7793 -1.4360
-2.4580 -59.0313 -3.6741
-2.5762 -61.4141 -3.4299
-2.7480 -58.8359 -7.2100
-2.7222 -61.3516 -7.4121
-3.8501 -58.7891 -8.9678
-3.6719 -61.3711 -8.9019
-5.2280 -58.7891 -9.4819
-5.2080 -61.3750 -9.4341
-6.7720 -61.3711 -8.9019
-6.5278 -58.7891 -8.9678
-7.6982 -61.3496 -7.4680
-7.4580 -58.9785 -7.3901
-2.3921 -55.8945 -6.5459
-3.8042 -55.9219 -8.1599
-5.2339 -55.9219 -8.6758
-6.6201 -55.9395 -8.1660
-2.5518 -53.5273 -6.3621
-3.7300 -53.5273 -8.0139
-5.2358 -53.5273 -8.5098
-2.4580 -55.8965 -4.1401
-2.6880 -53.5273 -4.2180
-2.6001 -49.4570 -6.1680
-3.5581 -49.4727 -7.9961
-5.2422 -49.4570 -9.0059
-6.6758 -53.5273 -8.0139
-7.5581 -55.9570 -6.6599
-7.9199 -59.4570 -3.6520
-7.6201 -55.9434 -4.4500
-7.8359 -59.8652 -1.5440
-7.1001 -55.8672 -2.4580
-7.4180 -59.2520 0.0800
-2.7021 -49.5430 -4.0439
-3.4399 -51.5938 -2.9340
-3.3281 -49.6602 -2.5520
-3.4102 -53.5273 -3.0181
-3.3159 -55.8672 -2.4041
-3.1001 -59.1797 -0.0820
-7.9941 -61.4141 -3.4299
-8.0518 -61.7676 -1.5000
-8.4541 -61.2773 1.0660
-7.9600 -61.3633 3.0040
-9.1299 -62.6211 3.0959
-8.1138 -61.8125 4.5740
-8.9702 -62.6738 4.5339
-8.6982 -62.3828 1.3020
-7.6558 -61.9316 6.8821
-8.2021 -62.4512 6.9819
-6.7422 -61.7617 9.1499
-7.6538 -62.6602 9.2100
-6.2539 -61.9629 10.7881
-6.1221 -62.5742 10.9922
-5.3618 -61.6758 11.0918
-5.3218 -62.4473 11.2061
-4.5400 -62.5645 10.9922
-4.4219 -61.9277 10.7739
-3.2241 -62.6387 9.1919
-4.2061 -61.6836 9.1660
-2.7021 -62.4512 6.9819
-3.3081 -61.9121 6.8721
-4.0918 -61.2012 4.5620
-4.1221 -60.7715 3.5620
-6.7422 -60.9453 3.4880
-6.9058 -61.3262 4.5820
-4.3682 -61.5781 6.8599
-5.4302 -61.5137 9.6563
-6.5420 -61.5781 6.8640
-6.2881 -58.9160 0.9660
-6.0601 -55.7129 -1.4440
-6.9858 -53.5273 -3.0540
-6.0181 -53.5273 -1.8500
-6.0459 -53.0254 -1.7880
-6.0679 -52.6543 -1.7420
-7.2002 -51.5879 -3.0020
-6.1240 -51.6602 -1.6180
-7.6162 -49.6465 -2.6780
-6.4878 -49.7969 -1.1300
-5.8838 -53.5273 -2.0759
-5.2378 -53.5332 -2.1360
-4.3198 -55.7109 -1.4700
-4.5742 -53.5273 -2.1340
-4.0439 -58.8867 0.9580
-4.4561 -53.5273 -1.9080
-4.4102 -53.0117 -1.8280
-4.3779 -52.6504 -1.7740
-4.2900 -51.6602 -1.6220
-4.0322 -49.7969 -1.1600
-5.2080 -62.5313 -9.3042
-6.6782 -62.5313 -8.7778
-7.5942 -62.5313 -7.3579
-7.6641 -62.7500 -3.4299
-7.9600 -63.0508 -1.5980
-9.0342 -63.3457 1.4460
-9.5039 -63.5391 3.0959
-9.4282 -63.5801 4.7520
-8.7241 -63.3652 7.1660
-7.5581 -63.7598 9.4258
-8.6982 -64.2734 1.5000
-9.2080 -64.4609 3.0959
-9.2158 -64.4863 4.9680
-8.5742 -64.2793 7.3521
5.3540 52.1172 -1.2020
5.3701 52.6191 -1.1920
5.3999 52.1152 -1.1660
5.4902 51.7480 -1.3020
5.3960 51.7070 -1.1860
5.3979 51.5391 -1.1920
5.3442 51.5430 -1.2340
5.3062 51.4473 -1.1960
5.3638 51.4453 -1.1500
5.1958 51.4238 -1.0380
5.2378 51.4219 -1.0060
5.1938 51.3184 -1.0520
5.2441 51.3164 -1.0120
5.2280 51.2344 -1.1020
5.2822 51.2324 -1.0600
5.3018 51.1895 -1.2000
5.3560 51.1875 -1.1580
5.3862 51.2422 -1.3040
5.4399 51.2402 -1.2620
5.4380 51.3828 -1.3640
5.3481 51.7070 -1.2220
5.3418 52.6250 -1.1560
5.2822 52.1641 -1.1080
5.3882 52.6211 -1.1200
5.3281 52.1621 -1.0720
5.4160 52.6172 -1.1560
5.3242 52.0234 -1.0760
5.2778 52.0254 -1.1120
5.4922 51.3809 -1.3220
5.4600 51.5293 -1.3820
5.5122 51.5273 -1.3400
5.4419 51.7500 -1.3400
5.3882 51.3145 -1.1320
9.6318 -9.0601 -2.0780
9.2422 -7.8240 -4.2720
9.7578 -7.8240 -2.0620
9.1299 -9.0601 -4.2939
7.7539 -7.8240 -5.8660
7.6582 -9.0601 -5.8940
5.6040 -7.8240 -6.7200
5.5298 -9.0601 -6.6760
3.3760 -7.8240 -6.0181
3.3838 -9.0601 -6.0459
2.0020 -7.8240 -4.1780
2.0220 -9.0601 -4.2219
1.5498 -7.8240 -2.1279
1.5801 -9.0601 -2.1880
2.1040 -7.8240 0.0920
2.1079 -9.0601 0.0140
3.0962 -7.8220 1.7300
3.0762 -9.0601 1.6300
4.6079 -7.8240 2.8500
4.5640 -9.0601 2.7419
6.5000 -7.8220 2.9980
6.4341 -9.0601 2.8800
8.1602 -7.8220 2.1121
8.0361 -9.0601 1.9560
9.4019 -7.8240 0.2640
9.2378 -9.0601 0.1400
1.5059 -6.0859 -2.0460
1.9741 -6.0859 -4.1201
3.3618 -6.0859 -5.9819
5.6821 -6.0859 -6.7781
7.8838 -6.0859 -5.8301
9.3740 -6.0859 -4.2339
9.8940 -6.0859 -2.0220
2.0962 -6.0859 0.2040
3.1240 -6.0859 1.8700
4.6460 -6.0859 3.0081
6.5498 -6.0859 3.1720
8.3379 -6.0859 2.3521
9.5898 -6.0859 0.4440
5.2378 -53.5332 -2.1360
6.0601 -55.7129 -1.4440
5.8838 -53.5273 -2.0759
4.3198 -55.7109 -1.4700
4.0439 -58.8867 0.9580
3.3159 -55.8672 -2.4041
3.1001 -59.1797 -0.0820
2.6240 -61.2148 3.1221
4.1221 -60.7715 3.5620
2.7539 -61.5664 4.5361
4.0918 -61.2012 4.5620
3.3081 -61.9121 6.8721
4.3682 -61.5781 6.8599
4.2061 -61.6836 9.1660
5.4302 -61.5137 9.6563
5.3618 -61.6758 11.0918
6.7422 -61.7617 9.1499
6.2539 -61.9629 10.7881
7.6538 -62.6602 9.2100
6.1221 -62.5742 10.9922
4.5400 -62.5645 10.9922
5.3218 -62.4473 11.2061
3.4121 -63.6875 9.4199
2.3140 -63.3086 7.2539
2.5342 -64.2520 7.3501
3.2241 -62.6387 9.1919
4.4219 -61.9277 10.7739
2.7021 -62.4512 6.9819
1.8701 -62.6738 4.5339
1.6318 -63.5879 4.7861
1.8198 -62.6211 3.0959
2.0898 -64.4609 3.0959
2.1079 -62.4336 1.5360
2.7378 -64.2734 1.5000
2.5298 -61.7793 -1.4360
2.9678 -63.0508 -1.5980
2.5762 -61.4141 -3.4299
1.9019 -64.4863 4.9680
7.5581 -63.7598 9.4258
8.7241 -63.3652 7.1660
8.5742 -64.2793 7.3521
9.4282 -63.5801 4.7520
9.2158 -64.4863 4.9680
9.5039 -63.5391 3.0959
9.2080 -64.4609 3.0959
9.0342 -63.3457 1.4460
8.6982 -64.2734 1.5000
7.9600 -63.0508 -1.5980
8.0518 -61.7676 -1.5000
7.9941 -61.4141 -3.4299
7.6641 -62.7500 -3.4299
7.5942 -62.5313 -7.3579
7.6982 -61.3496 -7.4680
6.6782 -62.5313 -8.7778
6.7720 -61.3711 -8.9019
5.2080 -62.5313 -9.3042
5.2080 -61.3750 -9.4341
7.6558 -61.9316 6.8821
6.5420 -61.5781 6.8640
8.2021 -62.4512 6.9819
8.9702 -62.6738 4.5339
9.1299 -62.6211 3.0959
8.6982 -62.3828 1.3020
8.1138 -61.8125 4.5740
7.1001 -55.8672 -2.4580
6.2881 -58.9160 0.9660
7.4180 -59.2520 0.0800
6.7422 -60.9453 3.4880
7.9600 -61.3633 3.0040
6.9058 -61.3262 4.5820
6.4878 -49.7969 -1.1300
6.1240 -51.6602 -1.6180
7.6162 -49.6465 -2.6780
7.2002 -51.5879 -3.0020
6.0679 -52.6543 -1.7420
6.9858 -53.5273 -3.0540
6.0459 -53.0254 -1.7880
6.0181 -53.5273 -1.8500
5.2358 -53.5273 -2.3779
5.8081 -53.5273 -2.4180
5.2378 -53.5273 -3.1741
5.8960 -53.5273 -3.4100
6.9780 -53.5273 -4.2920
7.0381 -53.5273 -4.9219
7.0742 -53.5273 -4.0920
7.3398 -53.5273 -6.3281
6.6919 -53.5273 -6.8501
6.5200 -53.5273 -7.7280
5.2979 -53.5273 -7.3760
5.2358 -53.5273 -8.1780
3.8940 -53.5273 -7.7720
3.9341 -53.5273 -6.8501
2.8379 -53.5273 -6.2319
3.3901 -53.5273 -5.1821
3.2661 -53.5273 -3.8400
3.4019 -53.5273 -4.0620
4.5781 -53.5273 -3.4100
4.5601 -53.5234 -2.6180
4.1602 -49.7871 -1.3980
4.4238 -51.6563 -1.8720
3.5479 -49.6543 -2.7061
3.6841 -51.5879 -3.1060
4.5742 -53.5273 -2.1340
2.9639 -49.5371 -4.1221
2.8721 -49.4609 -6.1160
3.7500 -49.4805 -7.7839
5.2422 -49.4707 -8.7222
6.9839 -49.4688 -8.0620
7.8120 -49.4629 -6.4741
7.8062 -49.5332 -4.5300
6.9282 -51.5801 -3.1580
7.3818 -49.6406 -2.8140
5.9878 -51.6563 -1.8480
6.3560 -49.7852 -1.3600
-7.0859 -51.4453 -4.0660
-5.8081 -53.5273 -2.4180
-6.9780 -53.5273 -4.2920
-5.8701 -51.5508 -2.5260
-7.4741 -49.5273 -3.6700
-6.2598 -49.8008 -2.4440
-8.0039 -46.9180 -2.6741
-6.6138 -46.7520 -1.6500
-5.2700 -49.7500 -2.1799
-5.2378 -46.7891 -1.5360
-4.1919 -46.7559 -1.7760
-4.3979 -49.7305 -2.5420
-3.0220 -46.9199 -2.7020
-3.3340 -49.5039 -3.7540
-3.1221 -46.5762 -2.4561
-3.3960 -65.5332 -6.8259
-3.0342 -63.4473 -3.4299
-3.3940 -65.5332 -3.5701
-2.8242 -62.5313 -7.3579
-4.0381 -65.5332 -8.2080
-3.7402 -62.5313 -8.7778
-5.2080 -65.5332 -8.5742
-6.3799 -65.5332 -8.2080
-7.0200 -65.5332 -6.8259
-7.5161 -63.4473 -3.4299
-7.1221 -65.5332 -3.5701
-13.1958 33.8789 -3.9420
-13.5801 33.4160 -4.6099
-12.5659 34.8438 -3.8420
-11.9619 35.2246 -4.5220
-13.2681 34.0723 -5.2739
-12.4819 34.8145 -5.1560
-13.9741 33.8438 -5.7681
-12.3042 35.5430 -5.8101
-13.9458 34.7559 -6.2019
-13.0918 35.4414 -6.1641
-14.9038 34.7070 -6.4541
-13.1440 36.4160 -6.3799
-14.9541 35.6367 -6.4321
-14.0620 36.4297 -6.4180
-15.9160 35.5879 -6.2620
-14.1519 37.3887 -6.3540
-15.9102 36.5176 -5.9380
-15.0679 37.2891 -6.0281
-16.6816 36.3848 -5.5859
-15.0962 38.2207 -5.6001
-16.5518 37.1641 -5.0081
-15.8198 37.9277 -5.0300
-17.2002 36.8613 -4.4360
-15.5142 38.5723 -4.2700
-16.8418 37.3809 -3.7219
-16.0898 38.2168 -3.6460
-17.2773 36.8262 -3.1479
-15.6738 38.6641 -2.9580
-16.6914 37.1035 -2.4180
-15.9360 37.9121 -2.3640
7.0859 -51.4453 -4.0660
5.8701 -51.5508 -2.5260
7.4741 -49.5273 -3.6700
6.2598 -49.8008 -2.4440
8.0039 -46.9180 -2.6741
6.6138 -46.7520 -1.6500
5.2700 -49.7500 -2.1799
5.2378 -46.7891 -1.5360
4.1919 -46.7559 -1.7760
4.3979 -49.7305 -2.5420
3.0220 -46.9199 -2.7020
3.3340 -49.5039 -3.7540
4.5039 -51.5820 -2.8779
3.4502 -51.4492 -3.9620
3.1221 -46.5762 -2.4561
5.2378 -51.5820 -2.4241
7.1919 -51.4746 -3.8979
5.9561 -51.6621 -2.2739
7.5562 -49.5977 -3.4561
6.3042 -49.7832 -2.1500
8.1118 -46.9922 -2.4680
6.7061 -46.8320 -1.4060
5.2480 -49.8262 -1.9880
5.2422 -46.8828 -1.2880
4.0601 -46.8262 -1.5620
4.2900 -49.7422 -2.2920
2.9082 -46.9883 -2.4980
3.2319 -49.5664 -3.5320
4.4761 -51.6465 -2.4220
3.3301 -51.4688 -3.8120
8.0122 -46.6465 -2.2161
5.3218 -62.8750 11.1621
4.5400 -62.9980 10.9482
6.1221 -62.9980 10.9482
7.5581 -64.2891 9.5459
3.4141 -64.2891 9.5459
8.5742 -65.2813 7.4839
2.5322 -65.2773 7.4839
9.2158 -65.5332 5.1440
1.9082 -65.5332 5.1440
9.2080 -65.5332 3.0859
2.0898 -65.5332 3.0859
8.6982 -65.4102 1.4480
2.7378 -65.4102 1.4480
7.8218 -63.7793 -1.6820
3.1079 -63.7793 -1.6820
7.5161 -63.4473 -3.4299
3.0342 -63.4473 -3.4299
2.6021 -60.7109 1.5980
2.7158 -59.1855 -1.4940
2.4580 -55.8965 -4.1401
3.4102 -53.5273 -3.0181
2.6880 -53.5273 -4.2180
2.3921 -55.8945 -6.5459
2.5518 -53.5273 -6.3621
3.8042 -55.9219 -8.1599
3.7300 -53.5273 -8.0139
5.2339 -55.9219 -8.6758
5.2358 -53.5273 -8.5098
6.6201 -55.9395 -8.1660
6.6758 -53.5273 -8.0139
7.5581 -55.9570 -6.6599
2.4580 -59.0313 -3.6741
2.7480 -58.8359 -7.2100
8.4541 -61.2773 1.0660
7.8359 -59.8652 -1.5440
7.6201 -55.9434 -4.4500
7.9199 -59.4570 -3.6520
7.4580 -58.9785 -7.3901
6.5278 -58.7891 -8.9678
5.2280 -58.7891 -9.4819
3.8501 -58.7891 -8.9678
2.7222 -61.3516 -7.4121
3.6719 -61.3711 -8.9019
7.6660 -53.5273 -6.4321
7.6060 -53.5273 -4.7080
8.0698 -49.5371 -4.4761
8.0840 -49.4609 -6.5300
7.1738 -49.4609 -8.2759
5.2422 -49.4570 -9.0059
3.5581 -49.4727 -7.9961
2.6001 -49.4570 -6.1680
2.7021 -49.5430 -4.0439
3.4399 -51.5938 -2.9340
3.3281 -49.6602 -2.5520
-5.3721 52.7480 -1.1940
-5.3618 52.6543 -1.1920
-5.5298 52.9766 -1.3800
-5.4160 52.6172 -1.1560
-5.3701 52.6191 -1.1920
-5.3999 52.1152 -1.1660
-5.3540 52.1172 -1.2020
-5.4902 51.7480 -1.3020
-5.4419 51.7500 -1.3400
-5.5122 51.5273 -1.3400
-5.4600 51.5293 -1.3820
-5.4922 51.3809 -1.3220
-5.4380 51.3828 -1.3640
-5.4399 51.2402 -1.2620
-5.3862 51.2422 -1.3040
-5.3560 51.1875 -1.1580
-5.3018 51.1895 -1.2000
-5.2822 51.2324 -1.0600
-5.2280 51.2344 -1.1020
-5.2441 51.3164 -1.0120
-5.1938 51.3184 -1.0520
-5.2378 51.4219 -1.0060
-5.1958 51.4238 -1.0380
-5.3281 52.1621 -1.0720
-5.3882 52.6211 -1.1200
-5.3242 52.0234 -1.0760
-5.3960 51.7070 -1.1860
-5.3979 51.5391 -1.1920
-5.3638 51.4453 -1.1500
-5.3882 51.3145 -1.1320
-5.3062 51.4473 -1.1960
-5.3442 51.5430 -1.2340
-5.3481 51.7070 -1.2220
-5.2778 52.0254 -1.1120
-5.2822 52.1641 -1.1080
-5.3418 52.6250 -1.1560
4.8838 -53.0605 -1.5600
5.1641 -52.6992 -1.6340
5.1641 -52.9258 -1.5760
4.7520 -52.9141 -1.6480
4.5342 -53.5078 -1.4200
4.4419 -53.4570 -1.6980
3.6880 -55.8887 -1.0400
3.5239 -55.9121 -1.5080
2.7598 -58.7109 -0.4700
2.5601 -58.8223 -0.8860
3.8018 -55.7188 -0.3660
3.3101 -55.5488 -0.4000
3.8320 -55.3906 -0.2440
3.3599 -55.2266 -0.2760
4.6919 -53.2598 -1.2760
4.3862 -53.1445 -1.2740
4.8638 -53.0703 -1.4040
4.7241 -52.8340 -1.4780
4.8481 -53.1191 -1.5340
4.7358 -52.8984 -1.6000
4.3901 -53.2344 -1.4740
4.6699 -53.3320 -1.4540
3.4502 -55.4375 -0.7020
3.9238 -55.6035 -0.6700
-16.8906 36.4277 -1.9740
-15.1582 38.1543 -1.7920
-16.0098 36.5000 -1.4820
-15.2842 37.3066 -1.4500
-16.0479 35.6035 -1.2140
-14.3882 37.3066 -1.2120
-15.1982 35.5586 -1.1660
-14.4121 36.4395 -1.1980
-15.1538 34.6543 -1.3320
-13.4741 36.4004 -1.3180
-14.2798 34.7129 -1.7100
-13.5781 35.5723 -1.6380
-14.4019 33.9766 -2.1520
-12.7720 35.7383 -2.1360
-13.6602 34.2129 -2.7460
-13.0439 35.0742 -2.6541
-13.7798 33.4863 -3.3140
-12.3281 35.4043 -3.2000
35.0293 17.9736 -4.4280
34.9883 17.9463 -4.5940
35.0742 17.8984 -4.4280
35.0313 17.8701 -4.5940
35.1582 17.8740 -4.4460
35.1133 17.8477 -4.6121
35.2305 17.9180 -4.4719
35.1875 17.8896 -4.6379
35.2500 18.0000 -4.4900
35.2070 17.9736 -4.6560
35.2031 18.0762 -4.4900
35.1621 18.0498 -4.6560
35.1211 18.0996 -4.4719
35.0781 18.0723 -4.6379
35.0508 18.0557 -4.4480
35.0059 18.0303 -4.6140
3.0059 -46.6465 -2.2540
7.8999 -46.5723 -2.4200
-6.3560 -49.7852 -1.3600
-5.9878 -51.6563 -1.8480
5.2500 -51.6641 -2.2120
2.8862 -62.7500 -3.4299
2.8242 -62.5313 -7.3579
3.7402 -62.5313 -8.7778
35.4219 17.8340 -3.8940
35.4922 17.8301 -3.9580
35.4316 17.8105 -3.9600
35.4805 17.8535 -3.8920
35.5352 17.7920 -3.9380
35.5254 17.8184 -3.8721
35.5215 17.7363 -3.9180
35.5117 17.7598 -3.8521
7.8442 57.7578 -4.7000
7.7979 57.7070 -4.7319
7.8481 57.6816 -4.6741
7.8159 57.6328 -4.7280
7.8779 57.6094 -4.6919
7.9238 57.6621 -4.6599
7.9082 57.7344 -4.6641
7.6299 57.6895 -4.4460
7.6201 57.7695 -4.2920
7.6919 57.7461 -4.4700
7.6821 57.8262 -4.3179
7.7798 57.7480 -4.4661
7.7700 57.8281 -4.3120
7.8418 57.6953 -4.4341
7.8320 57.7754 -4.2800
7.8418 57.6172 -4.3940
