-0.056797,0.004430,-0.019059
-0.059169,0.004505,-0.019002
-0.056178,0.000653,-0.021339
-0.054336,0.001572,-0.019984
-0.054113,-0.001552,-0.021673
-0.052611,-0.000818,-0.021055
-0.058851,-0.000128,-0.020811
-0.058038,-0.001881,-0.021194
-0.059852,0.002217,-0.019458
-0.060567,0.003713,-0.018732
-0.055190,0.003277,-0.017944
-0.053769,0.001650,-0.018680
-0.055785,0.004659,-0.017667
-0.054968,0.004364,-0.016279
-0.056787,0.006541,-0.015697
-0.057161,0.006214,-0.017170
-0.060865,0.001192,-0.018868
-0.061305,0.002858,-0.018237
-0.059882,-0.000851,-0.019740
-0.059039,0.006014,-0.017437
-0.061594,0.010764,-0.016470
-0.061295,0.007810,-0.017929
-0.063615,0.004559,-0.015039
-0.063681,0.006529,-0.015407
-0.061951,0.003963,-0.015449
-0.061445,0.002069,-0.015931
-0.057113,-0.002271,-0.016748
-0.059612,-0.001757,-0.016679
-0.061281,0.000392,-0.016224
-0.060375,0.004631,-0.013812
-0.063060,0.004863,-0.013384
-0.059807,0.002070,-0.013220
-0.059544,-0.000032,-0.013410
-0.058460,-0.001383,-0.013210
-0.056320,-0.001697,-0.013406
-0.054303,-0.001552,-0.013893
-0.055070,-0.002170,-0.017043
-0.062495,0.006947,-0.013479
-0.063781,0.009819,-0.015258
-0.063179,0.010614,-0.013908
-0.060416,0.005626,-0.017903
-0.061146,0.005385,-0.017778
-0.055483,0.004264,-0.014913
-0.057458,0.006393,-0.014634
-0.058698,0.009055,-0.014312
-0.054606,0.003401,-0.016329
-0.051889,-0.000097,-0.020140
-0.050950,-0.000798,-0.018328
-0.052978,0.001457,-0.017360
-0.052040,-0.000521,-0.014926
-0.053290,0.001544,-0.014938
-0.054605,0.003053,-0.015281
-0.061120,0.007423,-0.012896
-0.059637,0.008590,-0.013400
-0.058733,0.006079,-0.013653
-0.061410,0.011065,-0.013461
-0.060682,0.010944,-0.013369
-0.059186,0.010893,-0.014456
-0.057642,0.003160,-0.012987
-0.056743,0.001131,-0.013026
-0.071659,0.061395,-0.000269
-0.072337,0.069185,-0.000274
-0.071947,0.076551,-0.000280
-0.069445,0.081394,-0.000287
-0.065828,0.084186,-0.000290
-0.071470,0.061414,-0.001089
-0.072131,0.069203,-0.001164
-0.071727,0.076540,-0.001240
-0.069232,0.081292,-0.001315
-0.065695,0.083973,-0.001388
-0.062122,0.084650,-0.001457
-0.070957,0.061470,-0.001690
-0.071575,0.069261,-0.001816
-0.071125,0.076513,-0.001943
-0.068647,0.081016,-0.002069
-0.065329,0.083387,-0.002191
-0.061958,0.083977,-0.002311
-0.070255,0.061549,-0.001911
-0.070816,0.069340,-0.002056
-0.070301,0.076477,-0.002201
-0.067847,0.080640,-0.002346
-0.064827,0.082587,-0.002485
-0.069554,0.061628,-0.001693
-0.070055,0.069420,-0.001820
-0.069477,0.076442,-0.001946
-0.067045,0.080268,-0.002070
-0.064325,0.081787,-0.002191
-0.069040,0.061687,-0.001094
-0.069498,0.069479,-0.001170
-0.068874,0.076417,-0.001245
-0.066458,0.079991,-0.001317
-0.063957,0.081200,-0.001387
-0.068852,0.061710,-0.000275
-0.069293,0.069502,-0.000281
-0.068652,0.076409,-0.000287
-0.063822,0.080985,-0.000289
-0.042007,0.022971,-0.007060
-0.042586,0.022973,-0.008016
-0.043584,0.023154,-0.008742
-0.044669,0.022566,-0.008171
-0.045218,0.022486,-0.007546
-0.044896,0.022163,-0.006635
-0.043972,0.022370,-0.006032
-0.042698,0.022498,-0.006435
-0.050752,0.022285,-0.008078
-0.050976,0.022677,-0.008913
-0.051864,0.022949,-0.009338
-0.052956,0.022831,-0.009175
-0.053537,0.022764,-0.008912
-0.053640,0.022440,-0.008242
-0.053366,0.022315,-0.007570
-0.052594,0.022162,-0.007107
-0.051381,0.022103,-0.007393
-0.042802,0.021061,-0.006375
-0.044045,0.020936,-0.005982
-0.044946,0.020733,-0.006570
-0.045261,0.021048,-0.007459
-0.044725,0.021127,-0.008068
-0.043666,0.021700,-0.008625
-0.042693,0.021523,-0.007917
-0.042128,0.021522,-0.006985
-0.050980,0.020865,-0.007986
-0.051594,0.020688,-0.007318
-0.052773,0.020740,-0.007034
-0.053526,0.020889,-0.007486
-0.053793,0.021011,-0.008141
-0.053692,0.021327,-0.008795
-0.053128,0.021395,-0.009054
-0.052064,0.021511,-0.009214
-0.051198,0.021246,-0.008800
-0.043783,0.020309,-0.007249
-0.052377,0.020162,-0.008185
0.063910,0.082898,-0.009959
0.064335,0.083027,-0.009819
0.064774,0.082986,-0.009409
0.065049,0.082544,-0.009316
0.064760,0.082298,-0.009617
0.064330,0.082453,-0.009735
0.065086,0.083601,-0.008502
0.065516,0.082391,-0.007789
0.065204,0.081761,-0.008551
0.064332,0.081560,-0.009256
0.063199,0.082030,-0.009602
0.062780,0.082908,-0.009928
0.063357,0.083746,-0.009864
0.064503,0.083962,-0.009309
0.061782,0.081911,-0.009722
0.063331,0.081481,-0.009806
0.063069,0.084048,-0.010114
0.064514,0.084510,-0.009112
0.065380,0.083857,-0.008346
0.065656,0.081793,-0.007430
0.064615,0.081263,-0.009153
0.065344,0.081313,-0.008315
0.064040,0.080581,-0.009345
0.063186,0.080900,-0.009576
0.064897,0.080375,-0.008819
0.065204,0.080730,-0.008085
0.064253,0.085023,-0.008489
0.064978,0.084534,-0.007981
0.065810,0.083370,-0.007698
0.062823,0.085098,-0.009155
0.063684,0.085177,-0.008599
0.062233,0.084161,-0.009653
0.061662,0.084341,-0.010047
0.062399,0.085545,-0.009388
0.063554,0.086171,-0.008648
0.064409,0.086125,-0.008244
0.065576,0.085324,-0.007496
0.066399,0.083739,-0.007255
0.066659,0.082176,-0.007134
0.065940,0.081049,-0.007087
0.065333,0.080028,-0.008158
0.064464,0.079678,-0.008877
0.063460,0.079741,-0.009413
0.062620,0.080626,-0.009588
0.066974,0.083099,-0.006481
0.066810,0.081983,-0.006589
0.066365,0.080441,-0.006730
0.065762,0.079702,-0.007778
0.064175,0.078815,-0.008676
0.063320,0.078863,-0.009073
0.061622,0.079488,-0.009391
0.060785,0.080180,-0.009158
0.066013,0.085265,-0.006945
0.066557,0.084120,-0.006797
0.064598,0.086490,-0.007775
0.063703,0.086712,-0.008456
0.062550,0.085936,-0.009069
0.061316,0.084292,-0.009737
0.061495,0.081926,-0.009853
0.061573,0.086492,-0.008843
0.060688,0.084454,-0.009582
0.063026,0.087353,-0.007663
0.063925,0.087107,-0.006699
0.065488,0.085992,-0.005584
0.066466,0.084521,-0.005051
0.066999,0.082995,-0.005360
0.067114,0.081604,-0.005649
0.060792,0.081630,-0.009579
0.061533,0.088348,-0.005961
0.062991,0.087777,-0.004622
0.065105,0.085976,-0.003732
0.066638,0.084378,-0.003508
0.067468,0.082815,-0.003551
0.067838,0.081084,-0.004728
0.067514,0.079313,-0.005456
0.067035,0.077913,-0.006997
0.065148,0.076059,-0.008122
0.064286,0.075818,-0.008407
0.062290,0.075622,-0.009082
0.061016,0.076080,-0.009288
0.059492,0.078221,-0.009175
0.058675,0.080457,-0.008929
0.058542,0.081327,-0.009125
0.058285,0.083591,-0.009178
0.059933,0.087802,-0.007534
0.058747,0.085804,-0.008688
0.067928,0.082814,-0.002148
0.068858,0.080658,-0.003382
0.068796,0.078087,-0.004625
0.069011,0.075094,-0.005912
0.060440,0.075103,-0.009370
0.059176,0.076267,-0.009506
0.058630,0.077680,-0.009352
0.057373,0.078970,-0.009468
0.057111,0.080370,-0.009322
0.056713,0.081910,-0.009158
0.056747,0.084150,-0.008936
0.059950,0.089454,-0.002386
0.059057,0.089763,-0.004186
0.057410,0.088770,-0.007086
0.056110,0.086710,-0.007529
0.068843,0.074002,-0.006299
0.067816,0.071935,-0.006760
0.064677,0.071960,-0.008091
0.061702,0.073931,-0.009095
0.070440,0.080522,-0.002161
0.071977,0.078810,-0.002231
0.071365,0.077805,-0.003445
0.071194,0.076596,-0.004128
0.070568,0.074469,-0.005452
0.069975,0.073237,-0.005842
0.069392,0.071110,-0.005752
0.069223,0.070170,-0.006265
0.065231,0.070819,-0.008077
0.061253,0.071842,-0.009427
0.059836,0.072749,-0.009869
0.058007,0.074508,-0.010213
0.056621,0.076640,-0.010112
0.056232,0.078587,-0.009761
0.055978,0.080255,-0.009449
0.055853,0.081805,-0.009431
0.074783,0.076638,-0.002096
0.074176,0.075913,-0.003282
0.073573,0.075017,-0.004201
0.072685,0.073559,-0.005173
0.071958,0.072319,-0.005415
0.071513,0.070932,-0.005680
0.071358,0.070087,-0.005760
0.076045,0.075911,-0.002057
0.076884,0.075354,-0.002279
0.076699,0.074922,-0.003586
0.076004,0.075182,-0.003258
0.075404,0.074300,-0.004320
0.076369,0.073770,-0.004821
0.074798,0.073122,-0.005272
0.075915,0.072568,-0.005495
0.074078,0.071852,-0.005233
0.075748,0.070752,-0.005809
0.074337,0.070907,-0.005757
0.072764,0.069950,-0.005955
0.078422,0.074774,-0.002365
0.079540,0.074059,-0.002461
0.079104,0.074124,-0.003009
0.077976,0.074602,-0.003367
0.080525,0.073172,-0.002288
0.079937,0.073269,-0.003113
0.077503,0.073465,-0.004742
0.078492,0.072995,-0.004391
0.079767,0.071776,-0.003684
0.080801,0.071722,-0.002016
0.080222,0.069863,-0.001762
0.079797,0.069000,-0.001561
0.079222,0.068307,-0.001618
0.078921,0.067966,-0.002354
0.079622,0.068559,-0.002734
0.080044,0.069442,-0.003078
0.077721,0.069403,-0.005286
0.079021,0.069136,-0.004215
0.078593,0.068133,-0.004020
0.077008,0.068260,-0.005103
0.077149,0.069154,-0.005580
0.079453,0.069996,-0.004289
0.080189,0.070591,-0.003250
0.077041,0.067541,-0.003616
0.075764,0.067442,-0.003877
0.078306,0.070371,-0.005068
0.077323,0.071682,-0.005336
0.077199,0.072516,-0.005111
0.079214,0.070993,-0.002903
0.078506,0.071167,-0.003158
0.077799,0.072213,-0.003598
0.078369,0.071608,-0.003250
0.075726,0.068326,-0.005626
0.074201,0.067484,-0.004117
0.074309,0.068209,-0.005746
0.073603,0.067919,-0.005612
0.076012,0.069641,-0.006071
0.075867,0.069055,-0.005841
0.074593,0.069680,-0.006313
0.072612,0.068381,-0.005824
0.074308,0.068953,-0.006095
0.071916,0.068794,-0.005625
0.072049,0.067781,-0.005446
0.072757,0.067327,-0.005226
0.071208,0.068952,-0.005731
0.071064,0.067941,-0.005544
0.071102,0.066471,-0.003570
0.075192,0.066732,-0.003794
0.073771,0.066924,-0.004161
0.076898,0.066965,-0.003531
0.073230,0.066115,-0.003098
0.074647,0.065937,-0.002868
0.076212,0.065866,-0.002348
0.069072,0.068895,-0.006248
0.068788,0.067870,-0.005915
0.069950,0.066847,-0.004355
0.068381,0.067074,-0.004998
0.078492,0.067079,-0.002001
0.077653,0.066325,-0.001493
0.074116,0.065652,-0.001469
0.072269,0.065870,-0.001962
0.069158,0.065911,-0.002022
0.067442,0.065560,-0.002575
0.070842,0.065940,-0.002486
0.069412,0.066024,-0.003148
0.067696,0.065672,-0.003706
0.064755,0.065170,-0.002544
0.065266,0.065373,-0.004657
0.060859,0.064795,-0.005447
0.060196,0.064304,-0.003215
0.065401,0.066888,-0.005644
0.061141,0.066461,-0.006557
0.065521,0.069331,-0.007378
0.065663,0.067545,-0.006570
0.061384,0.069246,-0.008976
0.061398,0.067575,-0.007865
0.058685,0.070665,-0.010181
0.057562,0.068748,-0.009209
0.056314,0.067175,-0.007352
0.055036,0.067650,-0.007695
0.056036,0.066093,-0.006324
0.054474,0.067050,-0.007179
0.055377,0.063783,-0.002864
0.054773,0.064269,-0.004777
0.053197,0.066159,-0.006530
0.056856,0.072403,-0.010250
0.055569,0.070417,-0.009988
0.052065,0.068576,-0.007959
0.054178,0.069612,-0.008757
0.051246,0.072896,-0.008639
0.052642,0.073824,-0.009717
0.053762,0.074286,-0.010271
0.055041,0.075560,-0.010457
0.054814,0.078918,-0.010116
0.054704,0.080710,-0.009655
0.054741,0.082349,-0.009063
0.053719,0.080259,-0.009244
0.053416,0.078581,-0.009403
0.051854,0.077894,-0.009292
0.051022,0.077265,-0.008484
0.052310,0.080121,-0.009082
0.051198,0.079933,-0.008362
0.055486,0.092711,-0.002354
0.057163,0.091847,-0.002217
0.055324,0.092788,-0.003200
0.056956,0.091625,-0.004376
0.055435,0.092877,-0.004193
0.056792,0.091397,-0.004961
0.053105,0.092854,-0.002266
0.053344,0.092831,-0.003561
0.053468,0.093033,-0.004260
0.053433,0.092999,-0.005405
0.055246,0.092438,-0.005521
0.056495,0.091462,-0.005659
0.053645,0.093356,-0.007808
0.055470,0.092762,-0.007501
0.056436,0.091935,-0.007755
0.054441,0.093776,-0.009365
0.055697,0.093216,-0.009462
0.056667,0.092377,-0.009573
0.055650,0.094236,-0.011365
0.056495,0.093937,-0.011278
0.057485,0.093058,-0.010958
0.056610,0.094598,-0.012358
0.057325,0.094412,-0.011970
0.058172,0.093547,-0.011791
0.058007,0.094776,-0.012949
0.058579,0.094610,-0.012701
0.059006,0.094008,-0.012339
0.057459,0.090207,-0.005810
0.056983,0.090679,-0.007891
0.056930,0.091286,-0.009971
0.057607,0.091950,-0.011214
0.058154,0.092302,-0.012050
0.059271,0.092475,-0.012493
0.060272,0.094162,-0.012648
0.060540,0.092909,-0.012775
0.060124,0.094898,-0.013000
0.059973,0.095230,-0.013537
0.061684,0.094204,-0.012663
0.061387,0.093017,-0.012774
0.061392,0.094786,-0.013168
0.061242,0.095231,-0.013686
0.062817,0.094320,-0.012544
0.062808,0.093244,-0.012506
0.062673,0.094884,-0.012910
0.062513,0.095210,-0.013585
0.067069,0.095336,-0.012309
0.056951,0.089043,-0.008473
0.056917,0.089879,-0.009965
0.057439,0.090887,-0.011878
0.054957,0.088839,-0.009147
0.055057,0.089687,-0.010782
0.054685,0.087788,-0.008386
0.056003,0.090405,-0.012595
0.058425,0.091616,-0.012269
0.056971,0.091041,-0.013562
0.059403,0.091914,-0.012550
0.058669,0.091577,-0.013420
0.060666,0.092222,-0.012990
0.060632,0.092162,-0.013983
0.061506,0.092374,-0.013125
0.061766,0.092428,-0.013837
0.062922,0.092611,-0.013000
0.063329,0.092801,-0.013703
0.060322,0.092238,-0.014824
0.057790,0.092125,-0.014767
0.061887,0.092756,-0.014658
0.063741,0.093098,-0.014111
0.055553,0.091799,-0.014021
0.054168,0.091290,-0.012889
0.053098,0.090097,-0.010538
0.053116,0.089466,-0.009739
0.051894,0.088916,-0.008321
0.061462,0.093598,-0.014998
0.063313,0.093813,-0.014596
0.059618,0.093432,-0.015408
0.057227,0.093283,-0.015068
0.055416,0.092790,-0.014063
0.053899,0.092267,-0.012785
0.052282,0.091047,-0.010131
0.052032,0.090807,-0.009003
0.051370,0.090107,-0.007473
0.053774,0.093516,-0.012659
0.055442,0.093949,-0.014257
0.057254,0.094410,-0.014974
0.059773,0.094577,-0.015595
0.052292,0.092328,-0.010293
0.051777,0.092031,-0.008588
0.051539,0.091623,-0.007190
0.051165,0.091611,-0.005465
0.050842,0.089725,-0.006350
0.051046,0.091548,-0.004756
0.050722,0.089931,-0.005480
0.061749,0.094430,-0.015354
0.063464,0.094767,-0.014798
0.051516,0.092556,-0.003531
0.051773,0.092340,-0.004273
0.051758,0.092391,-0.004839
0.052002,0.092507,-0.006119
0.052509,0.092661,-0.007837
0.059665,0.095220,-0.014825
0.057296,0.094890,-0.013937
0.055607,0.094667,-0.013035
0.054370,0.094289,-0.011890
0.052885,0.093538,-0.009768
0.050182,0.090310,-0.004999
0.050650,0.091765,-0.004009
0.061487,0.095195,-0.014843
0.062915,0.095267,-0.014305
0.047522,0.089266,-0.003750
0.048147,0.088344,-0.005864
0.047372,0.086063,-0.006800
0.049575,0.089140,-0.005950
0.050555,0.089309,-0.006380
0.051333,0.088475,-0.008064
0.049631,0.088099,-0.008470
0.048659,0.087503,-0.008067
0.048011,0.085734,-0.008185
0.051852,0.088174,-0.009394
0.050291,0.087935,-0.009792
0.049054,0.087053,-0.009669
0.048519,0.085874,-0.009470
0.052355,0.088049,-0.011140
0.050782,0.087595,-0.011685
0.049980,0.086801,-0.011154
0.049313,0.085604,-0.010811
0.053400,0.088439,-0.009280
0.053377,0.088074,-0.009883
0.053636,0.087996,-0.010614
0.052695,0.088437,-0.012251
0.051285,0.087761,-0.013253
0.050482,0.086544,-0.012762
0.054306,0.088536,-0.012010
0.053411,0.089140,-0.013924
0.051657,0.088305,-0.014356
0.050999,0.086672,-0.013914
0.050982,0.087230,-0.018413
0.051602,0.088321,-0.016061
0.052466,0.089701,-0.017114
0.051542,0.089344,-0.019396
0.053079,0.090013,-0.015827
0.054827,0.089390,-0.013799
0.054182,0.090200,-0.016550
0.053598,0.090404,-0.017226
0.052687,0.090748,-0.019441
0.051483,0.090238,-0.021584
0.050909,0.088205,-0.020901
0.050722,0.088926,-0.022677
0.050791,0.086847,-0.015879
0.049969,0.085454,-0.011990
0.050449,0.085532,-0.014138
0.050396,0.085813,-0.015673
0.050960,0.081685,-0.007471
0.051489,0.082121,-0.009148
0.052381,0.080967,-0.014375
0.052073,0.081021,-0.017044
0.052417,0.081637,-0.019131
0.051618,0.084246,-0.021282
0.051270,0.086355,-0.022636
0.050667,0.083501,-0.016756
0.050441,0.085258,-0.018859
0.050613,0.083137,-0.014367
0.048862,0.083439,-0.007668
0.049540,0.083380,-0.008688
0.049915,0.083419,-0.010041
0.050423,0.083573,-0.011472
0.054945,0.085971,-0.008567
0.054204,0.085661,-0.009714
0.055523,0.085328,-0.012623
0.055940,0.086929,-0.013197
0.055768,0.088307,-0.014486
0.054735,0.089048,-0.016382
0.053844,0.089471,-0.017880
0.053089,0.089760,-0.019540
0.052318,0.089654,-0.021519
0.051565,0.088473,-0.022454
0.055542,0.084730,-0.012254
0.053864,0.083879,-0.012148
0.054413,0.084603,-0.012374
0.054540,0.085478,-0.012582
0.054513,0.086403,-0.013491
0.054629,0.087478,-0.014530
0.054301,0.088633,-0.016408
0.053418,0.089193,-0.017894
0.053076,0.089059,-0.019602
0.052319,0.088916,-0.021154
0.052003,0.088421,-0.021900
0.052548,0.082937,-0.014465
0.052202,0.082835,-0.016595
0.052262,0.083889,-0.018773
0.051922,0.085009,-0.020225
0.051729,0.086676,-0.021341
0.051710,0.087284,-0.021854
0.055371,0.085509,-0.008199
0.054784,0.084695,-0.008551
0.052629,0.088397,-0.020074
0.052163,0.088228,-0.021357
0.052196,0.087994,-0.020244
0.053107,0.088387,-0.018383
0.054330,0.087158,-0.010716
0.053316,0.088067,-0.016287
0.054346,0.083430,-0.008520
0.053486,0.087244,-0.014946
0.053100,0.086276,-0.013463
0.052449,0.085033,-0.012557
0.052400,0.085307,-0.013953
0.052342,0.086011,-0.015454
0.052401,0.086642,-0.017671
0.052365,0.087320,-0.019029
0.052116,0.084483,-0.014444
0.051913,0.084658,-0.016414
0.051976,0.085551,-0.018329
0.052060,0.086385,-0.019677
0.053626,0.082305,-0.008473
0.045993,0.088581,0.002200
0.046282,0.087908,0.003622
0.046470,0.086982,0.004875
0.047290,0.083301,0.006704
0.048276,0.080154,0.007175
0.048282,0.076870,0.007571
0.049817,0.072959,0.008075
0.050568,0.069012,0.007386
0.050917,0.065325,0.005884
0.051460,0.063381,0.004324
0.051688,0.062690,0.002559
0.041785,0.086279,0.001450
0.041812,0.085527,0.002652
0.042085,0.083578,0.004760
0.043007,0.081573,0.005808
0.043723,0.079290,0.006181
0.044606,0.075623,0.007170
0.046050,0.071304,0.007757
0.047137,0.066196,0.006844
0.047498,0.063301,0.005682
0.047665,0.061707,0.004518
0.048074,0.060394,0.003517
0.049090,0.059724,0.002746
0.038286,0.084933,0.000976
0.038564,0.084417,0.002143
0.038900,0.081895,0.004382
0.039815,0.080112,0.005077
0.040385,0.077619,0.005993
0.041825,0.074183,0.006801
0.042614,0.069460,0.007307
0.043009,0.064030,0.006702
0.043890,0.060425,0.005758
0.044208,0.059428,0.005301
0.044706,0.058361,0.004460
0.045080,0.057230,0.003423
0.045622,0.055926,0.002433
0.034769,0.083653,0.000378
0.035180,0.082749,0.002463
0.035484,0.080571,0.004414
0.035884,0.078402,0.005040
0.036291,0.076229,0.005665
0.036969,0.071882,0.006911
0.037312,0.067238,0.007468
0.038639,0.061136,0.007441
0.039222,0.057387,0.006916
0.039783,0.055816,0.006092
0.040048,0.054399,0.005205
0.040948,0.051983,0.003679
0.042113,0.051349,0.002602
0.030163,0.081520,0.002409
0.030475,0.079347,0.004358
0.031017,0.077047,0.005235
0.031590,0.074556,0.006154
0.032131,0.070193,0.007385
0.033528,0.065411,0.007692
0.035203,0.059467,0.008600
0.036324,0.055992,0.008069
0.036762,0.053690,0.006791
0.037250,0.051003,0.005598
0.038566,0.048721,0.003989
0.039412,0.047415,0.002827
0.024624,0.080655,0.002928
0.025307,0.078776,0.005057
0.027008,0.076306,0.006300
0.027495,0.073194,0.007659
0.028739,0.069077,0.008716
0.030397,0.064375,0.009239
0.031342,0.060629,0.009881
0.032661,0.057583,0.009786
0.032960,0.054713,0.009648
0.033442,0.051451,0.007763
0.033913,0.047066,0.006346
0.034926,0.044053,0.004764
0.035764,0.042800,0.003798
0.021059,0.080543,0.002574
0.021822,0.078961,0.005054
0.023596,0.074995,0.008179
0.025032,0.072589,0.008963
0.027261,0.068833,0.009747
0.029333,0.064005,0.010855
0.030428,0.059591,0.010740
0.030981,0.056793,0.010817
0.030954,0.054116,0.010803
0.030205,0.051460,0.010813
0.030051,0.048148,0.009900
0.029300,0.045533,0.010103
0.028664,0.044095,0.010048
0.026820,0.068667,0.010147
0.028174,0.064655,0.011612
0.029714,0.059482,0.012842
0.030063,0.056801,0.013491
0.030077,0.054042,0.013091
0.029553,0.050434,0.012005
0.029352,0.047821,0.012365
0.028223,0.045052,0.012149
0.026987,0.042320,0.011297
0.026337,0.068810,0.010576
0.027653,0.064810,0.012548
0.028316,0.060326,0.014556
0.029090,0.056616,0.015385
0.028761,0.053947,0.015543
0.028080,0.050281,0.014760
0.027869,0.046984,0.014865
0.027068,0.045072,0.014183
0.024997,0.041558,0.012696
0.020482,0.079355,0.004823
0.021879,0.076112,0.007743
0.023012,0.073097,0.009973
0.024245,0.069890,0.011443
0.025012,0.065509,0.013856
0.025743,0.061620,0.015736
0.026410,0.057327,0.017200
0.026449,0.052951,0.017785
0.025689,0.049748,0.017298
0.025483,0.047424,0.017182
0.024613,0.044417,0.015817
0.024006,0.042066,0.015356
0.022451,0.040244,0.015084
0.015985,0.080630,0.002511
0.015839,0.079985,0.003769
0.016190,0.078487,0.005992
0.016728,0.075900,0.009495
0.018221,0.070957,0.013026
0.018453,0.066302,0.015439
0.019147,0.061701,0.017383
0.020009,0.057912,0.019160
0.020908,0.052693,0.019716
0.020810,0.050660,0.019445
0.020373,0.048056,0.019160
0.018880,0.043375,0.018103
0.010613,0.080504,0.003190
0.010937,0.079767,0.004211
0.011131,0.078559,0.005938
0.011234,0.076475,0.008782
0.011405,0.074180,0.011168
0.012187,0.068080,0.014981
0.012346,0.065502,0.016198
0.013049,0.060090,0.017806
0.013321,0.057071,0.018417
0.013478,0.053910,0.018942
0.013521,0.050689,0.019261
0.013729,0.047291,0.019638
0.013114,0.043225,0.018952
0.013174,0.040397,0.018360
0.022197,0.038270,0.013027
0.023174,0.040124,0.013333
0.024944,0.038529,0.012133
0.026691,0.038830,0.011119
0.028507,0.041690,0.009542
0.028990,0.039189,0.008303
0.026591,0.036940,0.010608
0.024619,0.036361,0.011453
0.021433,0.036153,0.012390
0.024120,0.035167,0.011050
0.021092,0.034937,0.011806
0.023569,0.033624,0.010104
0.020597,0.033083,0.010835
0.022882,0.031481,0.008462
0.026158,0.033906,0.009392
0.025698,0.031969,0.008036
0.027125,0.032974,0.007961
0.028188,0.034503,0.007729
0.026538,0.035694,0.010164
0.029000,0.036457,0.008095
0.029633,0.040732,0.007925
0.031899,0.039174,0.005739
0.030354,0.036580,0.006978
0.031735,0.036514,0.005906
0.031056,0.034176,0.006462
0.030083,0.032897,0.006853
0.028877,0.031344,0.007080
0.026594,0.030331,0.007162
0.025159,0.030278,0.007331
0.022497,0.030571,0.007905
0.019875,0.030878,0.009816
0.033482,0.038992,0.004094
0.032993,0.036451,0.004512
0.032433,0.033457,0.004818
0.031368,0.031844,0.005175
0.029770,0.030110,0.005291
0.027053,0.029002,0.005666
0.024760,0.029012,0.005724
0.022400,0.029152,0.006359
0.019394,0.029198,0.008286
0.032270,0.045866,0.007779
0.031606,0.049891,0.008646
0.032727,0.043640,0.006370
0.031412,0.044735,0.008248
0.033997,0.042556,0.004999
0.034809,0.041641,0.003748
-0.000662,0.078389,0.004102
-0.000861,0.076449,0.006870
-0.000351,0.072249,0.010536
0.001135,0.068850,0.013208
0.002113,0.065314,0.015135
0.002363,0.059530,0.018004
0.002171,0.056684,0.018731
0.002509,0.054331,0.019087
0.002403,0.052112,0.019372
0.002647,0.048920,0.018884
0.002861,0.045568,0.017301
0.002462,0.043821,0.016727
0.002318,0.039869,0.015444
0.002568,0.037157,0.013919
0.002167,0.034906,0.012532
0.002044,0.033683,0.010944
0.001888,0.031232,0.008598
0.001893,0.030552,0.006182
0.009007,0.044937,0.016782
0.007141,0.039326,0.015165
0.006785,0.036911,0.013512
0.006613,0.034862,0.012407
0.006195,0.033134,0.010180
0.006479,0.031138,0.008609
0.006677,0.030019,0.006414
-0.008641,0.079666,0.002232
-0.008435,0.078303,0.004197
-0.007635,0.076765,0.006374
-0.007393,0.073715,0.009443
-0.008362,0.071186,0.012370
-0.007252,0.065808,0.016469
-0.003824,0.059147,0.019060
-0.003829,0.055975,0.020086
-0.004178,0.053372,0.020634
-0.003793,0.050787,0.020845
-0.003734,0.047659,0.020735
-0.003682,0.043925,0.020244
-0.004040,0.040382,0.019052
-0.003783,0.036210,0.016632
-0.004004,0.033380,0.014057
-0.003880,0.031957,0.011514
-0.004636,0.030162,0.010088
-0.004784,0.028525,0.005914
-0.015535,0.079719,0.002079
-0.016248,0.078805,0.003849
-0.015954,0.077848,0.005738
-0.014896,0.076399,0.008133
-0.015102,0.073847,0.010527
-0.018415,0.069223,0.014701
-0.013927,0.060784,0.020476
-0.012070,0.056228,0.022420
-0.011877,0.053751,0.023206
-0.011634,0.050238,0.023510
-0.012006,0.045977,0.024023
-0.011848,0.040903,0.023030
-0.012816,0.036076,0.021241
-0.013287,0.032938,0.018812
-0.013296,0.031345,0.016498
-0.013158,0.029296,0.013068
-0.013399,0.027674,0.012067
-0.013644,0.026431,0.008306
-0.013932,0.025855,0.005623
-0.020776,0.079843,0.002611
-0.020745,0.079026,0.003927
-0.021812,0.078163,0.006575
-0.021370,0.076690,0.009626
-0.022563,0.074283,0.011475
-0.026211,0.072299,0.012656
-0.027116,0.067627,0.017411
-0.023772,0.060487,0.022351
-0.022120,0.056498,0.024151
-0.020439,0.051511,0.025661
-0.020393,0.044786,0.025957
-0.019954,0.039687,0.025107
-0.019683,0.035362,0.022929
-0.020260,0.032167,0.019985
-0.020294,0.030677,0.017742
-0.020438,0.028809,0.013924
-0.020888,0.026135,0.012110
-0.020567,0.025807,0.008412
-0.020272,0.025193,0.005697
-0.025947,0.080132,0.002085
-0.026886,0.079588,0.004261
-0.027859,0.078509,0.008100
-0.028303,0.076994,0.011479
-0.029377,0.075196,0.012380
-0.031898,0.072106,0.014337
-0.030693,0.068823,0.016747
-0.029878,0.066188,0.019072
-0.029458,0.060271,0.022189
-0.028787,0.056283,0.023671
-0.028417,0.048473,0.025781
-0.028788,0.040372,0.024924
-0.028549,0.036167,0.022817
-0.027625,0.033162,0.020610
-0.026871,0.031527,0.017755
-0.026878,0.029895,0.013598
-0.027167,0.026370,0.011584
-0.027257,0.026080,0.007419
-0.030912,0.080815,0.001801
-0.031099,0.080075,0.003999
-0.032107,0.079260,0.007670
-0.032817,0.078601,0.010931
-0.033830,0.077359,0.013665
-0.036112,0.075303,0.015937
-0.036133,0.071123,0.017486
-0.034612,0.067219,0.018833
-0.033858,0.062579,0.020574
-0.034998,0.058296,0.021925
-0.035153,0.053368,0.023014
-0.033683,0.043028,0.023699
-0.033401,0.039152,0.022130
-0.033810,0.036365,0.019920
-0.033892,0.034678,0.016888
-0.033263,0.033066,0.013719
-0.033400,0.028097,0.010808
-0.033571,0.027222,0.005131
-0.033235,0.081004,0.001807
-0.033705,0.080297,0.003869
-0.034036,0.079563,0.007905
-0.034778,0.079238,0.010881
-0.036592,0.077878,0.014898
-0.038746,0.075165,0.016912
-0.038928,0.070431,0.017955
-0.040059,0.063859,0.018372
-0.039884,0.060703,0.018897
-0.040112,0.058161,0.019644
-0.039868,0.054248,0.020859
-0.039983,0.049370,0.021326
-0.040521,0.045380,0.019703
-0.039677,0.041839,0.017820
-0.039286,0.039149,0.016309
-0.039667,0.037986,0.014263
-0.038140,0.081306,0.001612
-0.038613,0.080673,0.003556
-0.039083,0.080469,0.006429
-0.041947,0.078649,0.012178
-0.042984,0.075110,0.016154
-0.042739,0.071201,0.017366
-0.043245,0.066224,0.017594
-0.043498,0.062169,0.018066
-0.043358,0.060078,0.018757
-0.041995,0.057319,0.019833
-0.041446,0.054312,0.020776
-0.042259,0.049468,0.020951
-0.043543,0.045603,0.019420
-0.043800,0.042064,0.016901
-0.043697,0.040209,0.015583
-0.043539,0.039682,0.014584
-0.044246,0.081753,0.001868
-0.044565,0.081323,0.003270
-0.045144,0.080753,0.006416
-0.045688,0.078740,0.012160
-0.046220,0.074621,0.016420
-0.047610,0.070105,0.017790
-0.047639,0.065569,0.018286
-0.046990,0.062164,0.018812
-0.045477,0.059609,0.019345
-0.044118,0.056929,0.020303
-0.044023,0.054005,0.021486
-0.045914,0.047915,0.021411
-0.047285,0.043066,0.019271
-0.047527,0.039300,0.017113
-0.047753,0.036486,0.014535
-0.053399,0.083103,0.000755
-0.053780,0.082583,0.003094
-0.053872,0.081877,0.005814
-0.054063,0.080663,0.009047
-0.054107,0.078038,0.013234
-0.053612,0.073181,0.016849
-0.051871,0.066607,0.019027
-0.051311,0.063851,0.019293
-0.051074,0.062346,0.019353
-0.050340,0.058365,0.020014
-0.049715,0.054927,0.020862
-0.049418,0.052040,0.021238
-0.048926,0.047266,0.020923
-0.049662,0.041018,0.019064
-0.051769,0.035031,0.017716
-0.054835,0.029653,0.016439
-0.059266,0.084085,0.000500
-0.059648,0.082580,0.003066
-0.059615,0.082194,0.005315
-0.060139,0.081324,0.008434
-0.059781,0.079289,0.011816
-0.058912,0.076266,0.014233
-0.057398,0.070744,0.017077
-0.055780,0.065380,0.018357
-0.055230,0.060951,0.018590
-0.055169,0.057798,0.018792
-0.053625,0.054902,0.019618
-0.053037,0.049981,0.020382
-0.052527,0.045815,0.020450
-0.052662,0.040008,0.019173
-0.054223,0.034982,0.018081
-0.056340,0.029874,0.016947
-0.063983,0.081644,0.005576
-0.064551,0.080355,0.008271
-0.063677,0.078394,0.010353
-0.062748,0.075824,0.012888
-0.062236,0.072171,0.013765
-0.061487,0.066024,0.014920
-0.060191,0.060767,0.016444
-0.059140,0.057172,0.017678
-0.058011,0.054206,0.018470
-0.057014,0.048381,0.019491
-0.056924,0.044159,0.019532
-0.057491,0.038253,0.018538
-0.058191,0.034220,0.017210
-0.059436,0.031512,0.016549
-0.066467,0.079719,0.004605
-0.066581,0.078155,0.007622
-0.066362,0.076070,0.009146
-0.065795,0.073602,0.010588
-0.065270,0.070788,0.011484
-0.064297,0.065570,0.013380
-0.063182,0.059572,0.014945
-0.062324,0.056409,0.015961
-0.060920,0.053420,0.016894
-0.060008,0.048241,0.017654
-0.059935,0.043415,0.017314
-0.060338,0.038321,0.016158
-0.060779,0.034301,0.015167
-0.061380,0.032009,0.014587
-0.069784,0.078240,0.004271
-0.069213,0.076352,0.006404
-0.069007,0.074566,0.007454
-0.068552,0.072110,0.008566
-0.068318,0.069398,0.009208
-0.067438,0.065064,0.010475
-0.066230,0.059980,0.012775
-0.064993,0.056164,0.013877
-0.064086,0.051964,0.014409
-0.062927,0.047177,0.014908
-0.062049,0.043176,0.015393
-0.062129,0.038622,0.014563
-0.062743,0.035572,0.013848
-0.063400,0.032680,0.013392
-0.069397,0.074568,0.002984
-0.069271,0.073358,0.003891
-0.069181,0.071576,0.004607
-0.068818,0.069840,0.005351
-0.068694,0.068124,0.005442
-0.068184,0.064548,0.006201
-0.067244,0.059680,0.007801
-0.066471,0.055892,0.009256
-0.065517,0.051780,0.011007
-0.064720,0.048424,0.011239
-0.062829,0.042450,0.011973
-0.044871,0.036302,0.014683
-0.043512,0.036791,0.014619
-0.050167,0.033579,0.014618
-0.048234,0.033125,0.014621
-0.045518,0.033265,0.014472
-0.043671,0.033463,0.014217
-0.039581,0.034057,0.013817
-0.038539,0.033934,0.013553
-0.034647,0.033752,0.013511
-0.052155,0.030421,0.013371
-0.049474,0.029766,0.013394
-0.046480,0.029946,0.013267
-0.043793,0.029617,0.012493
-0.039593,0.031001,0.012752
-0.039613,0.029810,0.011681
-0.038186,0.031910,0.013119
-0.036735,0.032002,0.012645
-0.036116,0.029741,0.011061
-0.037775,0.029904,0.011866
-0.030664,0.031280,0.013381
-0.030695,0.029406,0.012052
-0.029003,0.027409,0.010946
-0.031092,0.028207,0.010326
-0.028980,0.026637,0.010297
-0.031716,0.027636,0.008329
-0.024714,0.026200,0.011580
-0.022668,0.026463,0.012359
-0.018710,0.026718,0.012423
-0.029282,0.026426,0.007025
-0.032310,0.027380,0.007191
-0.033732,0.027603,0.008519
-0.035008,0.028175,0.009073
-0.036881,0.029148,0.009053
-0.035614,0.028216,0.007453
-0.033878,0.027548,0.006666
-0.036496,0.027557,0.005237
-0.027187,0.025622,0.005474
-0.039393,0.026491,0.005979
-0.039137,0.027997,0.009059
-0.054371,0.027230,0.011279
-0.050888,0.027193,0.010843
-0.047153,0.026663,0.009919
-0.043605,0.026930,0.009833
-0.041231,0.025489,0.005899
-0.042045,0.025490,0.007245
-0.043451,0.025746,0.008267
-0.044984,0.024920,0.007461
-0.045760,0.024807,0.006582
-0.047940,0.024806,0.006968
-0.049933,0.024516,0.007335
-0.050246,0.025067,0.008512
-0.051496,0.025450,0.009114
-0.053036,0.025283,0.008886
-0.053852,0.025185,0.008512
-0.055569,0.025994,0.010710
-0.053998,0.024728,0.007567
-0.057576,0.026155,0.006542
-0.053612,0.024552,0.006619
-0.052525,0.024337,0.005963
-0.050821,0.024261,0.006370
-0.045306,0.024353,0.005296
-0.044004,0.024646,0.004446
-0.042206,0.024824,0.005015
-0.060338,0.027383,0.006377
-0.060625,0.027704,0.009565
-0.063330,0.029064,0.006501
-0.063175,0.029330,0.009645
-0.065293,0.030836,0.005992
-0.064446,0.030814,0.010101
-0.067078,0.033274,0.005559
-0.066708,0.033209,0.008492
-0.068336,0.036138,0.004880
-0.068207,0.035868,0.007531
-0.069056,0.038992,0.004675
-0.068769,0.038842,0.006899
-0.068897,0.042472,0.004836
-0.068730,0.042403,0.006616
-0.067962,0.048322,0.004954
-0.067642,0.048383,0.006309
-0.067242,0.052800,0.005046
-0.066617,0.052709,0.006467
-0.066704,0.056683,0.004938
-0.066418,0.056028,0.006356
-0.066722,0.060555,0.004682
-0.065709,0.052520,0.008149
-0.066574,0.048827,0.008378
-0.067251,0.042437,0.009747
-0.066950,0.038539,0.010147
-0.066066,0.035521,0.010409
-0.063650,0.032669,0.010902
-0.064860,0.048957,0.010075
-0.065215,0.042601,0.010960
-0.063941,0.038782,0.011549
-0.062779,0.035808,0.011832
-0.062332,0.039102,0.012375
-0.067030,0.064607,0.004050
-0.067363,0.066655,0.004171
0.022085,0.038816,0.015366
0.021105,0.038846,0.016902
0.019556,0.039234,0.017671
0.016617,0.039415,0.018339
0.013032,0.038741,0.017997
0.011504,0.038429,0.018005
0.009851,0.038422,0.017207
0.008449,0.039060,0.015469
0.021392,0.036198,0.014748
0.020946,0.036581,0.016154
0.019035,0.037029,0.017808
0.016171,0.036847,0.018252
0.013195,0.036855,0.017824
0.011322,0.036278,0.017336
0.009995,0.035933,0.016653
0.008028,0.036122,0.013825
0.020830,0.034555,0.014237
0.020186,0.034166,0.016005
0.018139,0.034664,0.017517
0.015649,0.034053,0.017694
0.012512,0.034159,0.017323
0.010904,0.033844,0.016502
0.009876,0.033570,0.015524
0.008601,0.033871,0.012750
0.020370,0.032362,0.013547
0.019751,0.031851,0.015239
0.018252,0.030944,0.016207
0.015594,0.031012,0.017137
0.012673,0.030711,0.016679
0.011198,0.031221,0.016196
0.010244,0.031577,0.014777
0.008302,0.032784,0.011416
0.018575,0.011646,0.012533
0.017950,0.015552,0.012592
0.019032,0.019700,0.012260
0.019385,0.021959,0.012291
0.019465,0.026790,0.012436
0.019570,0.029520,0.012964
0.016231,0.011582,0.010741
0.017594,0.015531,0.013579
0.018426,0.019303,0.013521
0.018850,0.021939,0.013772
0.018979,0.026528,0.013783
0.019203,0.029246,0.014635
0.016842,0.011317,0.013546
0.016571,0.015422,0.014208
0.017208,0.018366,0.014631
0.017391,0.021459,0.015161
0.017748,0.026468,0.015101
0.017677,0.028536,0.015556
0.015607,0.015184,0.014257
0.015847,0.017886,0.014689
0.016165,0.021070,0.015116
0.015853,0.026513,0.015504
0.015641,0.029215,0.016517
0.015163,0.010744,0.014412
0.014633,0.015171,0.013945
0.014180,0.018546,0.014456
0.014324,0.021139,0.014697
0.014284,0.025709,0.015202
0.013256,0.028237,0.015962
0.014349,0.010637,0.014039
0.013735,0.014725,0.013540
0.013228,0.018431,0.014071
0.012855,0.021429,0.014573
0.012059,0.025439,0.014920
0.011581,0.028279,0.015357
0.013348,0.014673,0.012799
0.012265,0.018533,0.013322
0.011381,0.021361,0.013400
0.011068,0.025737,0.014126
0.010638,0.028338,0.014420
0.013465,0.015213,0.011971
0.012499,0.018628,0.011886
0.011612,0.021531,0.011844
0.010530,0.025581,0.012046
0.010195,0.029319,0.010553
0.016070,0.011265,0.013749
0.014902,0.015811,0.010656
0.013680,0.019066,0.010480
0.013148,0.021582,0.010350
0.012428,0.027067,0.010274
0.012477,0.029021,0.009325
0.015156,0.019170,0.009693
0.014761,0.021707,0.009572
0.014647,0.027702,0.009958
0.014353,0.029088,0.008999
0.017131,0.006100,0.015181
0.017322,0.008785,0.014489
0.018083,0.029096,0.009167
0.014608,0.007671,0.015055
0.015709,0.007931,0.015017
0.018063,0.011645,0.013708
0.019002,0.009018,0.014417
0.019557,0.008938,0.012856
0.014621,0.006788,0.014846
0.015658,0.005757,0.014681
0.014423,0.005321,0.014951
0.015806,0.005043,0.014240
0.016349,0.008285,0.015215
0.018232,0.004962,0.016278
0.020379,0.004880,0.016335
0.020979,0.003743,0.016455
0.019179,0.003183,0.016992
0.022507,0.001861,0.017261
0.020836,0.000996,0.018604
0.023980,-0.000705,0.018327
0.022619,-0.001383,0.018939
0.019110,-0.001489,0.018456
0.018423,0.000304,0.018074
0.017570,0.002670,0.016726
0.016954,0.004177,0.016005
0.023017,0.001936,0.015968
0.021794,0.003672,0.015230
0.021299,0.005100,0.014951
0.020088,0.006683,0.014449
0.020426,0.007005,0.012981
0.022027,0.004768,0.013571
0.016274,0.003328,0.015506
0.016638,0.001653,0.016133
0.017479,-0.000414,0.017002
0.018388,0.006491,0.014714
0.014174,0.007039,0.012685
0.014232,0.005072,0.012312
0.015727,0.004460,0.012721
0.016140,0.002547,0.013200
0.017708,-0.001326,0.013944
0.019934,-0.001915,0.014025
0.016250,0.000855,0.013491
0.014733,0.005375,0.010655
0.017168,0.005120,0.011083
0.017629,0.002536,0.010490
0.017816,0.000416,0.010680
0.018764,-0.000955,0.010483
0.020664,-0.001356,0.010693
0.021759,-0.001892,0.014331
0.022466,-0.001285,0.011192
0.015248,0.007466,0.010752
0.014624,0.011136,0.011189
0.014081,0.010334,0.012541
0.016466,0.005862,0.015055
0.019815,0.006863,0.011917
0.021570,0.004682,0.012205
0.018694,0.009550,0.011592
0.022323,0.003775,0.013624
0.024644,0.000010,0.017419
0.023721,0.001723,0.014658
0.025468,-0.000720,0.015621
0.023451,0.001829,0.012243
0.024511,-0.000322,0.012238
0.022318,0.003417,0.012577
0.016496,0.007935,0.010168
0.018658,0.006562,0.010930
0.017843,0.009096,0.010675
0.016892,0.011457,0.010649
0.018247,0.011398,0.011735
0.019609,0.003610,0.010268
0.020366,0.001537,0.010311
-0.055957,0.026099,0.013928
-0.053633,0.029979,0.014954
-0.057238,0.024403,0.015230
-0.058707,0.024728,0.016428
-0.060378,0.025015,0.016793
-0.057768,0.030645,0.017130
-0.062168,0.025506,0.016465
-0.064095,0.025842,0.014729
-0.063747,0.030076,0.013938
-0.064115,0.030829,0.013422
-0.066139,0.026624,0.013598
-0.066172,0.026563,0.011476
-0.061112,0.014462,0.016130
-0.059822,0.014504,0.015951
-0.061369,0.018728,0.015907
-0.059653,0.019003,0.015722
-0.061222,0.021312,0.016336
-0.059317,0.021300,0.016143
-0.061813,0.021418,0.016248
-0.062486,0.014338,0.015592
-0.062972,0.018322,0.015203
-0.063669,0.021831,0.015219
-0.063966,0.014184,0.014533
-0.064633,0.018306,0.014404
-0.065595,0.021795,0.014079
-0.058964,0.014993,0.014897
-0.058686,0.018821,0.014948
-0.058066,0.021450,0.014911
-0.056831,0.023670,0.013275
-0.057939,0.023234,0.011706
-0.058229,0.020749,0.012997
-0.059025,0.018189,0.013418
-0.059312,0.015149,0.013690
-0.059144,0.020540,0.012223
-0.060385,0.020516,0.011578
-0.060788,0.017848,0.012576
-0.059507,0.023624,0.010822
-0.058605,0.026596,0.009830
-0.061735,0.025199,0.010524
-0.062447,0.020837,0.011481
-0.062222,0.017827,0.012422
-0.062320,0.014464,0.012999
-0.060671,0.014887,0.012874
-0.064381,0.025550,0.010458
-0.065090,0.021868,0.011658
-0.063871,0.017960,0.012506
-0.063203,0.014560,0.013082
-0.065754,0.021743,0.012740
-0.064985,0.017526,0.013104
-0.064345,0.014247,0.013753
0.017452,0.020287,0.010424
0.018526,0.026629,0.009783
0.017809,0.022492,0.010096
0.017849,0.015841,0.011082
0.016021,0.015318,0.010173
0.020071,0.080126,0.003069
-0.047639,0.037894,0.015823
-0.062010,0.007620,0.017269
-0.062622,0.010383,0.016645
-0.063525,0.010279,0.016269
-0.063231,0.007351,0.017309
-0.058358,0.008720,0.016659
-0.059413,0.011269,0.015934
-0.060768,0.010940,0.015772
-0.060223,0.008469,0.016732
-0.057741,0.008614,0.015093
-0.058853,0.011258,0.014751
-0.063219,0.006476,0.017108
-0.063428,0.005032,0.017227
-0.062055,0.005472,0.016955
-0.061882,0.004762,0.016521
-0.058108,0.003054,0.019303
-0.056104,0.003621,0.018757
-0.056789,0.004723,0.018625
-0.059183,0.004768,0.018566
-0.056240,0.000975,0.020938
-0.054381,0.001825,0.019578
-0.054222,-0.001312,0.021291
-0.052711,-0.000635,0.020666
-0.058917,0.000243,0.020419
-0.058130,-0.001494,0.020822
-0.059893,0.002520,0.019042
-0.060596,0.003972,0.018301
-0.055189,0.003543,0.017528
-0.053806,0.001882,0.018281
-0.055759,0.004928,0.017233
-0.054939,0.004587,0.015848
-0.056750,0.006736,0.015237
-0.057127,0.006445,0.016716
-0.060915,0.001497,0.018458
-0.061340,0.003118,0.017810
-0.059954,-0.000497,0.019354
-0.059021,0.006235,0.016984
-0.061621,0.010893,0.015975
-0.061296,0.007983,0.017464
-0.063641,0.004734,0.014588
-0.063700,0.006708,0.014941
-0.061966,0.004158,0.015006
-0.061482,0.002294,0.015506
-0.057198,-0.002003,0.016378
-0.059688,-0.001468,0.016295
-0.061339,0.000640,0.015814
-0.060367,0.004793,0.013362
-0.063088,0.005006,0.012927
-0.059824,0.002250,0.012795
-0.059591,0.000174,0.013007
-0.058517,-0.001163,0.012823
-0.056389,-0.001525,0.013025
-0.054379,-0.001406,0.013520
-0.055163,-0.001935,0.016679
-0.062502,0.007111,0.013004
-0.063816,0.009974,0.014765
-0.063209,0.010756,0.013404
-0.060419,0.005843,0.017453
-0.061156,0.005597,0.017330
-0.055447,0.004460,0.014477
-0.057429,0.006558,0.014170
-0.058709,0.009178,0.013821
-0.054597,0.003618,0.015911
-0.051975,0.000059,0.019748
-0.051039,-0.000678,0.017952
-0.053014,0.001658,0.016967
-0.052109,-0.000393,0.014553
-0.053316,0.001698,0.014539
-0.054598,0.003242,0.014862
-0.061122,0.007568,0.012416
-0.059642,0.008720,0.012911
-0.058719,0.006226,0.013190
-0.061433,0.011190,0.012951
-0.060702,0.011063,0.012860
-0.059213,0.011009,0.013949
-0.057625,0.003331,0.012554
-0.056756,0.001309,0.012615
-0.068890,0.045221,0.000934
-0.069254,0.042004,0.001106
-0.069230,0.039041,0.001261
-0.068748,0.036131,0.000941
-0.068334,0.034555,0.000614
-0.067443,0.031903,-0.001883
-0.069001,0.029151,-0.002057
-0.071239,0.026145,-0.002045
-0.069880,0.045117,0.001058
-0.069715,0.040315,0.001234
-0.069785,0.036106,0.001449
-0.069938,0.032622,0.001283
-0.071166,0.029682,0.000977
-0.072186,0.026700,-0.000014
-0.070471,0.045367,0.000732
-0.070893,0.041403,0.001271
-0.071471,0.038585,0.001532
-0.072109,0.034254,0.002017
-0.072560,0.030773,0.002021
-0.074116,0.028096,0.001725
-0.075523,0.025361,0.001563
-0.071083,0.045666,0.000600
-0.072359,0.041681,0.001155
-0.073113,0.038855,0.001911
-0.073494,0.035673,0.002266
-0.074176,0.031908,0.002100
-0.076256,0.027792,0.002259
-0.077066,0.024025,0.002099
-0.072284,0.044024,0.000946
-0.073548,0.041023,0.001273
-0.074345,0.037626,0.001840
-0.075878,0.034753,0.001591
-0.076716,0.029024,0.002036
-0.078459,0.024485,0.002421
-0.072842,0.045145,0.000322
-0.074976,0.039103,0.001446
-0.077392,0.034763,0.000806
-0.077412,0.030958,0.001432
-0.078646,0.026748,0.002008
-0.080113,0.023980,0.002648
-0.073501,0.045168,-0.000475
-0.075616,0.040211,-0.000005
-0.077486,0.035711,0.000072
-0.079021,0.029783,0.000582
-0.080404,0.025372,0.001696
-0.080734,0.022523,0.002590
-0.072678,0.045426,-0.002495
-0.074543,0.040202,-0.002863
-0.077215,0.035800,-0.001872
-0.077773,0.031511,-0.002526
-0.078978,0.027574,-0.000960
-0.079827,0.023319,0.000408
-0.072504,0.044451,-0.002771
-0.073703,0.038875,-0.003709
-0.075607,0.033140,-0.004396
-0.076994,0.027956,-0.003599
-0.078083,0.025939,-0.001830
-0.079279,0.023630,0.000092
-0.071937,0.042023,-0.003298
-0.072621,0.037022,-0.004723
-0.073908,0.032487,-0.004681
-0.075012,0.028255,-0.003961
-0.076587,0.025800,-0.002458
-0.078819,0.023394,0.000092
-0.069915,0.042477,-0.002564
-0.070461,0.037509,-0.003972
-0.071118,0.034605,-0.004430
-0.073889,0.029524,-0.004528
-0.073540,0.026694,-0.003138
-0.075031,0.024317,-0.000928
-0.076837,0.023548,-0.000026
-0.071727,0.050826,-0.000642
-0.071229,0.056030,-0.000264
-0.071500,0.050818,0.000038
-0.071056,0.056049,0.000485
-0.071471,0.061416,0.000549
-0.072133,0.069208,0.000615
-0.071726,0.076542,0.000678
-0.069230,0.081295,0.000741
-0.065695,0.083972,0.000808
-0.062123,0.084649,0.000878
-0.070878,0.050798,0.000534
-0.070583,0.056102,0.001033
-0.070958,0.061475,0.001148
-0.071575,0.069267,0.001265
-0.071122,0.076517,0.001379
-0.068644,0.081021,0.001493
-0.065329,0.083387,0.001612
-0.061958,0.083977,0.001733
-0.070028,0.050770,0.000715
-0.069938,0.056174,0.001232
-0.070256,0.061554,0.001366
-0.070814,0.069345,0.001502
-0.070299,0.076482,0.001635
-0.067844,0.080645,0.001768
-0.064827,0.082587,0.001906
-0.069178,0.050742,0.000530
-0.069292,0.056246,0.001030
-0.069555,0.061633,0.001146
-0.070052,0.069424,0.001263
-0.069475,0.076446,0.001377
-0.067044,0.080268,0.001493
-0.064325,0.081786,0.001613
-0.068557,0.050721,0.000031
-0.068819,0.056299,0.000480
-0.069041,0.061691,0.000547
-0.069496,0.069481,0.000611
-0.068872,0.076419,0.000674
-0.066458,0.079991,0.000741
-0.063957,0.081200,0.000810
-0.068329,0.050714,-0.000650
-0.068646,0.056319,-0.000270
-0.068556,0.050721,-0.001330
-0.068818,0.056300,-0.001019
-0.069178,0.050742,-0.001827
-0.069290,0.056247,-0.001567
-0.070027,0.050770,-0.002007
-0.069936,0.056175,-0.001767
-0.070877,0.050798,-0.001823
-0.070582,0.056103,-0.001565
-0.071499,0.050818,-0.001324
-0.071055,0.056050,-0.001016
-0.067243,0.041974,-0.000819
-0.042010,0.022967,0.006471
-0.042587,0.022969,0.007426
-0.043585,0.023152,0.008152
-0.044673,0.022568,0.007581
-0.045225,0.022488,0.006958
-0.044903,0.022165,0.006047
-0.043976,0.022370,0.005442
-0.042702,0.022496,0.005845
-0.050755,0.022287,0.007498
-0.050976,0.022677,0.008332
-0.051863,0.022949,0.008759
-0.052955,0.022830,0.008597
-0.053533,0.022761,0.008332
-0.053637,0.022437,0.007662
-0.053363,0.022312,0.006990
-0.052593,0.022160,0.006525
-0.051384,0.022106,0.006813
-0.042808,0.021059,0.005782
-0.044053,0.020938,0.005390
-0.044957,0.020739,0.005980
-0.045271,0.021054,0.006870
-0.044736,0.021133,0.007479
-0.043675,0.021702,0.008036
-0.042695,0.021519,0.007323
-0.042132,0.021518,0.006393
-0.050975,0.020858,0.007396
-0.051589,0.020681,0.006729
-0.052768,0.020734,0.006447
-0.053519,0.020883,0.006900
-0.053786,0.021004,0.007556
-0.053684,0.021320,0.008210
-0.053121,0.021388,0.008469
-0.052056,0.021504,0.008627
-0.051191,0.021239,0.008211
-0.043794,0.020314,0.006657
-0.052370,0.020153,0.007595
0.064026,0.082800,0.009398
0.064452,0.082930,0.009253
0.064885,0.082892,0.008839
0.065157,0.082453,0.008738
0.064870,0.082206,0.009037
0.064442,0.082361,0.009160
0.065185,0.083517,0.007939
0.065603,0.082321,0.007202
0.065301,0.081680,0.007961
0.064438,0.081472,0.008672
0.063310,0.081938,0.009039
0.062899,0.082811,0.009383
0.063481,0.083644,0.009319
0.064618,0.083869,0.008751
0.061897,0.081815,0.009178
0.063444,0.081386,0.009234
0.063201,0.083940,0.009576
0.064630,0.084417,0.008559
0.065476,0.083775,0.007784
0.065741,0.081723,0.006836
0.064719,0.081176,0.008565
0.065438,0.081234,0.007721
0.064146,0.080492,0.008758
0.063292,0.080809,0.008999
0.064996,0.080291,0.008224
0.065295,0.080653,0.007489
0.064361,0.084937,0.007946
0.065068,0.084457,0.007432
0.065899,0.083294,0.007125
0.062944,0.085000,0.008630
0.063794,0.085091,0.008062
0.062356,0.084060,0.009129
0.061795,0.084232,0.009534
0.062527,0.085441,0.008873
0.063673,0.086079,0.008122
0.064523,0.086038,0.007711
0.065657,0.085253,0.006954
0.066481,0.083668,0.006682
0.066740,0.082108,0.006535
0.066019,0.080982,0.006486
0.065424,0.079950,0.007558
0.064564,0.079593,0.008282
0.063564,0.079654,0.008826
0.062726,0.080532,0.009016
0.067048,0.083035,0.005894
0.066883,0.081922,0.005986
0.066439,0.080377,0.006122
0.065848,0.079627,0.007173
0.064272,0.078731,0.008080
0.063419,0.078779,0.008483
0.061720,0.079400,0.008820
0.060885,0.080090,0.008606
0.066086,0.085200,0.006398
0.066632,0.084054,0.006228
0.064680,0.086419,0.007258
0.063823,0.086622,0.007933
0.062676,0.085836,0.008555
0.061442,0.084189,0.009229
0.061612,0.081828,0.009314
0.061698,0.086393,0.008349
0.060812,0.084354,0.009085
0.063135,0.087273,0.007155
0.063993,0.087050,0.006196
0.065545,0.085944,0.005051
0.066519,0.084476,0.004488
0.067059,0.082946,0.004769
0.067176,0.081552,0.005041
0.060905,0.081534,0.009045
0.061615,0.088292,0.005481
0.063034,0.087745,0.004134
0.065141,0.085949,0.003200
0.066674,0.084350,0.002939
0.067505,0.082785,0.002954
0.067889,0.081040,0.004111
0.067572,0.079261,0.004834
0.067109,0.077843,0.006373
0.065236,0.075977,0.007506
0.064379,0.075732,0.007798
0.062383,0.075541,0.008486
0.061106,0.076005,0.008702
0.059585,0.078131,0.008621
0.058777,0.080367,0.008410
0.058650,0.081234,0.008619
0.058403,0.083499,0.008705
0.060043,0.087720,0.007076
0.058865,0.085713,0.008232
0.067949,0.082797,0.001548
0.068893,0.080627,0.002754
0.068842,0.078041,0.003987
0.069069,0.075031,0.005259
0.060527,0.075030,0.008783
0.059264,0.076189,0.008937
0.058723,0.077586,0.008803
0.057478,0.078871,0.008949
0.057220,0.080273,0.008825
0.056827,0.081814,0.008687
0.056865,0.084060,0.008492
0.059971,0.089452,0.001942
0.059115,0.089733,0.003756
0.057519,0.088692,0.006676
0.056213,0.086637,0.007122
0.068905,0.073934,0.005643
0.067882,0.071861,0.006104
0.064764,0.071873,0.007462
0.061791,0.073851,0.008495
0.070460,0.080503,0.001520
0.071994,0.078788,0.001570
0.071397,0.077768,0.002784
0.071232,0.076552,0.003463
0.070619,0.074409,0.004783
0.070030,0.073172,0.005173
0.069443,0.071047,0.005078
0.069279,0.070100,0.005587
0.065312,0.070732,0.007441
0.061333,0.071765,0.008822
0.059924,0.072668,0.009275
0.058107,0.074417,0.009644
0.056727,0.076532,0.009578
0.056340,0.078483,0.009254
0.056089,0.080155,0.008967
0.055972,0.081705,0.008972
0.074796,0.076609,0.001409
0.074198,0.075875,0.002594
0.073607,0.074970,0.003513
0.072729,0.073505,0.004483
0.072004,0.072263,0.004726
0.071560,0.070875,0.004988
0.071404,0.070030,0.005064
0.076055,0.075878,0.001360
0.076895,0.075315,0.001575
0.076721,0.074869,0.002882
0.076024,0.075135,0.002558
0.075435,0.074244,0.003620
0.076404,0.073703,0.004115
0.074839,0.073058,0.004569
0.075957,0.072497,0.004785
0.074119,0.071797,0.004524
0.075791,0.070683,0.005088
0.074383,0.070846,0.005042
0.072811,0.069890,0.005247
0.078437,0.074736,0.001663
0.079556,0.074019,0.001754
0.079123,0.074073,0.002302
0.077994,0.074545,0.002656
0.080539,0.073135,0.001574
0.079957,0.073216,0.002400
0.077535,0.073394,0.004029
0.078519,0.072926,0.003670
0.079792,0.071713,0.002959
0.080813,0.071691,0.001291
0.080233,0.069837,0.001021
0.079806,0.068978,0.000813
