23.824336 -75.592239 72.48254399999999
18.642834999999998 -72.33917199999999 76.45554399999999
12.377410999999999 -71.341637 73.004456
42.501428000000004 -75.003113 68.70011099999999
36.393219 -77.245926 64.350914
30.0 -77.33976 68.413208
53.137928 -68.525963 69.495407
48.243393 -72.59684 64.92083000000001
47.360518 -71.624001 56.47583
42.344664 -75.293701 60.35849399999999
52.847786 -68.513641 61.185665
30.0 -77.739632 60.060085
36.083823 -76.285446 55.912689
60.181129 -58.744301 70.696457
57.284779 -64.033302 65.97060400000001
62.721985 -47.247597 72.108086
62.193290999999995 -52.809422 67.34650400000001
60.635329999999996 -51.783966 58.872634999999995
59.802673 -58.274517 62.434853000000004
62.311671999999994 -46.240147 63.903057
55.964355 -63.037693000000004 57.513115
60.181129 -35.750912 73.51969100000001
62.193290999999995 -40.698772 68.8311
53.137928 -25.969273 74.720711
57.284779 -29.474921999999996 70.206985
55.964355 -28.38744 61.699112
59.802673 -34.205795 65.371262
52.847786 -23.966715 66.62044499999999
60.635329999999996 -39.641121000000005 60.339581
42.501428000000004 -19.492123 75.516014
48.243393 -20.911410999999998 71.25676
30.0 -17.155464000000002 75.802925
36.393219 -16.262335 71.826683
36.083823 -15.139797 63.299538
42.344664 -17.186692999999998 67.447624
30.0 -14.740785999999998 67.746033
47.360518 -19.801192999999998 62.736397
17.498572 -19.492123 75.516014
23.606780999999998 -16.262335 71.826683
6.862072000000001 -25.969273 74.720711
11.756607000000002 -20.911410999999998 71.25676
12.639482000000001 -19.801192999999998 62.736397
17.655336 -17.186692999999998 67.447624
7.152214000000001 -23.966715 66.62044499999999
23.916176999999998 -15.139797 63.299538
-0.18112899999999854 -35.750912 73.51969100000001
2.715221000000003 -29.474921999999996 70.206985
-2.7219849999999965 -47.247597 72.108086
-2.193290999999995 -40.698772 68.8311
-0.6353299999999997 -39.641121000000005 60.339581
0.19732700000000136 -34.205795 65.371262
-2.3116719999999944 -46.240147 63.903057
4.035645000000002 -28.38744 61.699112
-0.18112899999999854 -58.744301 70.696457
-2.193290999999995 -52.809422 67.34650400000001
6.862072000000001 -68.52597 69.495407
2.715221000000003 -64.033302 65.97060400000001
4.035645000000002 -63.037693000000004 57.513115
0.19732700000000136 -58.274517 62.434853000000004
7.152214000000001 -68.513641 61.185665
-0.6353299999999997 -51.783966 58.872634999999995
17.498572 -75.003113 68.70011099999999
11.756607000000002 -72.59684 64.92083000000001
23.606780999999998 -77.245926 64.350914
23.916176999999998 -76.285446 55.912689
17.655336 -75.293701 60.35849399999999
12.639482000000001 -71.624001 56.47583
41.419712 -73.026543 51.947701
35.496346 -72.714691 47.741432
30.0 -75.37101700000001 51.669411
51.135868 -66.527702 52.719101
45.684122 -68.435898 48.236286
43.538797 -64.08575400000001 41.112705
40.082553000000004 -68.784065 44.200592
48.661026 -63.03478199999999 44.842171
30.0 -70.85813900000001 43.969139
34.744537 -67.756546 40.722034
57.569649 -56.713271999999996 53.884041
53.457145999999995 -60.554428 49.147785
59.890659 -45.17807 55.253235
57.677082 -50.224517999999996 50.342438
53.891335999999995 -48.462177000000004 42.775444
54.341473 -54.352332999999994 45.81105
56.390715 -44.147572 46.949795
50.24861 -57.324234 41.832306
57.569649 -33.642891 56.622432999999994
57.677082 -39.078472 51.631477000000004
51.135868 -23.828523999999998 57.787376
53.457145999999995 -28.748606 52.826126
50.24861 -30.037964000000002 44.736191
54.341473 -33.942837 48.088531
48.661026 -25.260448 49.057388
53.891335999999995 -38.899967 43.793083
41.419712 -17.329757999999998 58.55876899999999
45.684122 -20.867217999999998 53.73761
30.0 -14.985322 58.837051
35.496346 -16.58849 54.232452
34.744537 -19.605797 45.846405
40.082553000000004 -19.511248000000002 49.69894
30.0 -17.43722 49.930382
43.538797 -23.276516 45.455757
18.580288000000003 -17.329757999999998 58.55876899999999
24.503654 -16.58849 54.232452
8.864132000000001 -23.828523999999998 57.787376
14.315878 -20.867217999999998 53.73761
16.461202999999998 -23.276516 45.455757
19.917447 -19.511248000000002 49.69894
11.338974 -25.260448 49.057388
25.255463 -19.605797 45.846405
2.4303510000000017 -33.642891 56.622432999999994
6.542854000000002 -28.748606 52.826126
0.10934099999999702 -45.17807 55.253235
2.322917999999998 -39.078472 51.631477000000004
6.108664000000001 -38.899967 43.793083
5.658526999999999 -33.942837 48.088531
3.6092849999999963 -44.147572 46.949795
9.75139 -30.037964000000002 44.736191
2.4303510000000017 -56.713271999999996 53.884041
2.322917999999998 -50.224517999999996 50.342438
8.864132000000001 -66.527702 52.719101
6.542854000000002 -60.554428 49.147785
9.75139 -57.324234 41.832306
5.658526999999999 -54.352332999999994 45.81105
11.338974 -63.03478199999999 44.842171
6.108664000000001 -48.462177000000004 42.775444
18.580288000000003 -73.026543 51.947701
14.315878 -68.435898 48.236286
24.503654 -72.714691 47.741432
25.255463 -67.756546 40.722034
19.917447 -68.784065 44.200592
16.461202999999998 -64.08575400000001 41.112705
38.512309 -63.915588 38.065884000000004
33.912794 -62.735401 35.538139
30.0 -65.65394599999999 37.891865
45.754785999999996 -59.096886 38.548256
41.221104 -59.698723 35.817776
39.1335 -55.679226 31.541399
36.890153 -59.218479 33.486858000000005
42.983704 -55.558727000000005 33.790805999999996
30.0 -60.95021800000001 33.348602
33.0445 -58.207676 31.365601
50.550574999999995 -51.819771 39.276718
46.754656 -54.147835 36.329899
52.280676 -43.26675 40.132889
49.78188900000001 -46.816628 37.005005
45.961301 -45.258553000000006 32.266048
46.63435 -49.449898 34.29031
48.361795 -42.542469 34.858437
43.439099999999996 -51.36285 31.841549
50.550574999999995 -34.71376 40.989036999999996
49.78188900000001 -38.966515 37.729237
45.754785999999996 -27.436714000000002 41.717461
46.754656 -31.635371999999997 38.404305
43.439099999999996 -33.050098 33.114975
46.63435 -35.635094 35.426536999999996
42.983704 -29.526344 35.925999
45.961301 -39.154301000000004 32.690521000000004
38.512309 -22.618088 42.199799
41.221104 -26.084557 38.916393
30.0 -20.879766 42.373802000000005
33.912794 -23.047935 39.196007
33.0445 -26.2054 33.590897
36.890153 -25.866654999999998 36.229927
30.0 -24.134956 36.368179
39.1335 -28.733798999999998 33.4151
21.487690999999998 -22.618088 42.199799
26.087206000000002 -23.047935 39.196007
14.245214 -27.436714000000002 41.717461
18.778896000000003 -26.084557 38.916393
20.866500000000002 -28.733798999999998 33.4151
23.109847000000002 -25.866654999999998 36.229927
17.016296 -29.526344 35.925999
26.9555 -26.2054 33.590897
9.449425000000002 -34.71376 40.989036999999996
13.245344 -31.635371999999997 38.404305
7.719324 -43.26675 40.132889
10.218110999999997 -38.966515 37.729237
14.038699 -39.154301000000004 32.690521000000004
13.365649999999999 -35.635094 35.426536999999996
11.638205 -42.542469 34.858437
16.5609 -33.050098 33.114975
9.449425000000002 -51.819771 39.276718
10.218110999999997 -46.816628 37.005005
14.245214 -59.096886 38.548256
13.245344 -54.147835 36.329899
16.5609 -51.36285 31.841549
13.365649999999999 -49.449898 34.29031
17.016296 -55.558727000000005 33.790805999999996
14.038699 -45.258553000000006 32.266048
21.487690999999998 -63.915588 38.065884000000004
18.778896000000003 -59.698723 35.817776
26.087206000000002 -62.735401 35.538139
26.9555 -58.207676 31.365601
23.109847000000002 -59.218479 33.486858000000005
20.866500000000002 -55.679226 31.541399
35.274012 -60.515823 88.397751
42.732594 -54.013142 89.19622
42.732594 -44.817001 90.32537099999999
35.274012 -38.31435 91.123795
24.725988 -38.31435 91.123795
17.267406 -44.816998 90.32537099999999
17.267406 -54.013142 89.19622
24.725988 -60.515823 88.397743
40.294838 -70.274361 79.91301
54.853943 -57.538952 81.476776
54.853943 -39.528412 83.688187
40.294838 -26.793011 85.25187700000001
19.705162 -26.793013000000002 85.25187700000001
5.146056999999999 -39.528412 83.688187
5.146056999999999 -57.538956000000006 81.476768
19.705162 -70.274361 79.91301
42.552372 -75.456604 64.570259
60.304123 -58.643055000000004 66.631378
60.304123 -34.86515 69.546219
42.552372 -18.051655 71.60733
17.447628 -18.051655 71.60733
-0.30412299999999703 -34.86515 69.546219
-0.30412299999999703 -58.643055000000004 66.631378
17.447628 -75.456604 64.570267
40.791464 -71.067886 47.931892
56.052929000000006 -55.593513 49.721519
56.052929000000006 -33.709496 52.252396000000005
40.791463 -18.235267999999998 54.042
19.208536000000002 -18.235267999999998 54.042
3.9470709999999976 -33.709496 52.252399
3.9470709999999976 -55.593509999999995 49.721515999999994
19.208537 -71.067886 47.931892
37.696268 -61.530273 35.648293
48.580482 -50.611969 36.655167
48.580481 -35.171203999999996 38.079056
37.696268 -24.253042 39.085861
22.303732 -24.253044 39.085861
11.419518 -35.171203999999996 38.079056
11.419519000000001 -50.611969 36.655167
22.303732 -61.530273 35.648293
38.315096 -56.715225 89.28392
37.677777 -65.29205300000001 85.470047
30.0 -59.718033 88.915184
41.759323 -49.465804999999996 90.17405699999999
48.535797 -55.825615 86.632423
38.315096 -42.216431 91.064163
48.535797 -42.438103000000005 88.27621500000001
30.0 -39.213615000000004 91.432861
37.677777 -32.971703000000005 89.43852199999999
21.684904 -42.216431 91.064163
22.322223 -32.971703000000005 89.43852199999999
18.240676999999998 -49.465804999999996 90.17405699999999
11.464203000000001 -42.438103000000005 88.27621500000001
21.684904 -56.715225 89.283913
11.464203000000001 -55.825615 86.63243100000001
22.322223 -65.29205300000001 85.470039
49.032784 -65.182983 80.542679
42.125227 -73.956284 72.68341099999999
30.0 -72.07911700000001 79.695908
56.916426 -48.534214 82.586929
59.272898 -58.583831999999994 74.570938
49.032784 -31.885508 84.63110400000001
59.272898 -36.843933 77.24026500000001
30.0 -24.989314999999998 85.47784399999999
42.125227 -21.471478 79.127747
10.967216 -31.885506 84.63110400000001
17.874772999999998 -21.471478 79.127747
3.0835739999999987 -48.534214 82.586929
0.7271020000000021 -36.843933 77.24026500000001
10.967216 -65.182983 80.542679
0.7271020000000021 -58.583828000000004 74.570938
17.874772999999998 -73.956284 72.68341099999999
53.232218 -68.758461 65.391357
41.944908 -74.491371 56.129429
30.0 -77.87297099999999 64.274048
62.855331 -46.754093 68.088806
58.837582 -57.633114 58.166022999999996
53.232216 -24.749779 70.786224
58.83758400000001 -33.791992 61.046195999999995
30.0 -15.635285999999999 71.90355699999999
41.944908 -16.933854999999998 63.082802
6.767782 -24.749779 70.786224
18.055092000000002 -16.933857 63.082802
-2.8553309999999996 -46.754096999999994 68.088806
1.1624179999999988 -33.791992 61.046195999999995
6.767783999999999 -68.758461 65.391357
1.1624159999999968 -57.633114 58.166022999999996
18.055092000000002 -74.491371 56.129429
49.973093 -64.903244 48.644844
39.315371 -66.34375 40.872395000000004
30.0 -73.291801 47.674690000000005
58.24625 -44.651489 50.986954
52.489335999999994 -53.068253000000006 42.285247999999996
49.973095 -24.399834 53.329063
52.489335999999994 -34.293919 44.283264
30.0 -16.011395999999998 54.29919399999999
39.315371 -21.018566 45.696053000000006
10.026907000000001 -24.399834 53.32906
20.684629 -21.018564 45.696053000000006
1.7537500000000001 -44.651489 50.986958
7.510664000000002 -34.293919 44.283264
10.026905 -64.90323599999999 48.644844
7.510664000000002 -53.068249 42.285247999999996
20.684629 -66.34375 40.872395000000004
44.30225 -57.238625 36.04538
36.089 -56.943451 31.453499
30.0 -63.181362 35.497894
50.226485999999994 -42.891566999999995 37.367123
44.700201 -48.310699 32.053799
44.30225 -28.544621000000003 38.688805
44.700201 -36.1022 32.902747999999995
30.0 -22.601986 39.236252
36.089 -27.469601 33.502998
15.69775 -28.544621000000003 38.688805
23.911 -27.469601 33.502998
9.773514000000002 -42.891566999999995 37.367123
15.299798999999998 -36.1022 32.902747999999995
15.69775 -57.238625 36.04538
15.299798999999998 -48.310699 32.053799
23.911 -56.943451 31.453499
30.0 -49.619499 91.425529
30.0 -66.397354 85.37931800000001
43.998837 -61.342009999999995 86.000076
49.797348 -49.137291 87.498657
43.998837 -36.932644 88.997192
30.0 -31.877264 89.61790500000001
16.001163 -36.932644 88.997192
10.202652 -49.137291 87.498665
16.001163 -61.342003000000005 86.000076
30.0 -76.16555 72.412155
52.441647 -67.832245 73.435364
61.737291 -47.713871000000005 75.905609
52.441648 -27.595540999999997 78.375809
30.0 -19.262192000000002 79.399017
7.558353 -27.595540999999997 78.375801
-1.737290999999999 -47.713875 75.905609
7.558351999999999 -67.832245 73.435356
30.0 -76.914169 55.836739
52.107914 -67.775421 56.940765
61.26533499999999 -45.712540000000004 59.60611
52.107914 -23.649744000000002 62.271460999999995
30.0 -14.511089000000002 63.375488
7.892085999999999 -23.649744000000002 62.271460999999995
-1.2653349999999968 -45.712543 59.60611
7.892085999999999 -67.775421 56.940765
30.0 -68.25164000000001 40.669342
47.241112 -61.055083999999994 41.435249
54.382654 -43.681067999999996 43.284264
47.241112 -26.307147999999998 45.133232
30.0 -19.110706 45.899094
12.758887999999999 -26.307147999999998 45.133232
5.617345999999998 -43.681072 43.284264
12.758887999999999 -61.055083999999994 41.435249
30.0 -59.471901 31.2777
42.178 -54.415001000000004 31.629299
47.222401000000005 -42.206402000000004 32.478297999999995
42.178 -29.997999 33.327202
30.0 -24.9412 33.678799
17.822 -29.997999 33.327202
12.777598999999999 -42.206402000000004 32.478297999999995
17.822 -54.415001000000004 31.629299
33.245592 34.805618 12.994253
39.205272 34.805618 11.021955
42.111745 33.07312 14.47272
34.244443000000004 33.07312 17.076328
43.795218 34.805618 7.354736
46.263783000000004 34.805618 2.593131
51.373028000000005 33.07312 3.391175
48.11429 33.07312 9.676894
46.263783000000004 34.805618 -2.593131
43.795218 34.805618 -7.354736
48.11429 33.07312 -9.676894
51.373028000000005 33.07312 -3.391175
39.205272 34.805618 -11.021955
33.245592 34.805618 -12.994253
34.244443000000004 33.07312 -17.076328
42.111745 33.07312 -14.47272
26.754407999999998 34.805618 -12.994253
20.794728 34.805618 -11.021955
17.888255 33.07312 -14.47272
25.755556 33.07312 -17.076328
16.204782 34.805618 -7.354736
13.736217 34.805618 -2.593131
8.626971999999999 33.07312 -3.391175
11.88571 33.07312 -9.676894
13.736217 34.805618 2.593131
16.204782 34.805618 7.354736
11.88571 33.07312 9.676894
8.626971999999999 33.07312 3.391175
20.794728 34.805618 11.021955
26.754407999999998 34.805618 12.994253
25.755556 33.07312 17.076328
17.888255 33.07312 14.47272
35.147494 30.787243 20.709469
44.68865 30.787243 17.551916000000002
47.107315 27.788818 20.442032
35.995091 27.788818 24.119511
51.968313 30.787243 11.735733
55.920399 30.787243 4.112675
60.18853 27.788818 4.789872
55.585672 27.788818 13.66815
55.920399 30.787243 -4.112675
51.968313 30.787243 -11.735733
55.585674 27.788818 -13.66815
60.18853 27.788818 -4.789872
44.68865 30.787243 -17.551916000000002
35.147494 30.787243 -20.709469
35.995091 27.788818 -24.119511
47.107317 27.788818 -20.442032
24.852505999999998 30.787243 -20.709469
15.31135 30.787243 -17.551916000000002
12.892685 27.788818 -20.442032
24.00491 27.788818 -24.119511
8.031686999999998 30.787243 -11.735733
4.079601 30.787243 -4.112675
-0.1885300000000001 27.788818 -4.789872
4.414328000000001 27.788818 -13.66815
4.079601 30.787243 4.112675
8.031686999999998 30.787243 11.735733
4.414326000000003 27.788818 13.66815
-0.1885300000000001 27.788818 4.789872
15.31135 30.787243 17.551916000000002
24.852505999999998 30.787243 20.709469
24.00491 27.788818 24.119511
12.892682999999998 27.788818 20.442032
41.38518 -61.583293999999995 36.990372
62.488215999999994 -61.583293999999995 31.350451
62.011936 -66.05291 29.479046000000004
41.218271 -66.05291700000001 34.782307
78.589294 -61.583293999999995 20.961821
87.33045999999999 -61.583293999999995 7.345866
86.48996700000001 -66.05291 6.907367
77.876961 -66.05291 19.710545
87.33045999999999 -61.583293999999995 -7.345864999999999
78.589294 -61.583293999999995 -20.961821
77.876961 -66.05291 -19.710545
86.48996700000001 -66.05291 -6.907367
62.488215999999994 -61.583293999999995 -31.350451
41.38518 -61.583293999999995 -36.990372
41.218271 -66.05291 -34.782307
62.011936 -66.05291 -29.479046000000004
18.61482 -61.583293999999995 -36.990372
-2.488215999999994 -61.583293999999995 -31.350451
-2.0119359999999986 -66.05291 -29.479046000000004
18.781729 -66.05291 -34.782307
-18.589294000000002 -61.583293999999995 -20.961821
-27.330459999999995 -61.583293999999995 -7.345866
-26.489967000000007 -66.05291 -6.907367
-17.876961 -66.05291 -19.710545
-27.330459999999995 -61.583293999999995 7.345864999999999
-18.589294000000002 -61.583293999999995 20.961821
-17.876961 -66.05291 19.710545
-26.489967000000007 -66.05291 6.907367
-2.488215999999994 -61.583293999999995 31.350451
18.61482 -61.583293999999995 36.990372
18.781729 -66.05291700000001 34.782307
-2.0119359999999986 -66.05291 29.479046000000004
40.927921 -70.01816600000001 32.275467
61.183407 -70.018158 27.354421999999996
59.980331 -73.58744 24.960222
40.506315 -73.58744 29.450553999999997
76.63781 -70.018158 18.289957
85.027893 -70.018158 6.409536
82.904892 -73.58744 5.848541
74.83850100000001 -73.58744 16.689125
85.027893 -70.018158 -6.409536
76.63781 -70.018158 -18.289957
74.83850100000001 -73.58744 -16.689125
82.904892 -73.58744 -5.848541
61.183407 -70.018158 -27.354421999999996
40.927921 -70.018158 -32.275467
40.506315 -73.58744 -29.450553999999997
59.980331 -73.58744 -24.960222
19.072079 -70.018158 -32.275467
-1.183406999999999 -70.018158 -27.354421999999996
0.01966900000000038 -73.58744 -24.960222
19.493685 -73.58744 -29.450553999999997
-16.637809999999995 -70.018158 -18.289957
-25.027893000000006 -70.018158 -6.409536
-22.904892000000004 -73.58744 -5.848541
-14.838501 -73.58744 -16.689125
-25.027893000000006 -70.018158 6.409536
-16.637809999999995 -70.018158 18.289957
-14.838501 -73.58744 16.689125
-22.904892000000004 -73.58744 5.848541
-1.183406999999999 -70.018158 27.354421999999996
19.072079 -70.01816600000001 32.275467
19.493685 -73.58744 29.450553999999997
0.01966900000000038 -73.58744 24.960222
39.969816 -76.622314 26.506646999999997
58.4494 -76.622314 22.465176
56.648882 -79.007286 20.075317000000002
39.338842 -79.007286 23.686852
72.548843 -76.622314 15.020866
80.20333099999999 -76.622314 5.263916
77.026031 -79.007286 4.703938
69.855988 -79.007286 13.422938
80.20333099999999 -76.622314 -5.263916
72.548843 -76.622314 -15.020866
69.855988 -79.007286 -13.422938
77.026031 -79.007286 -4.703938
58.4494 -76.622314 -22.465176
39.969816 -76.622314 -26.506646999999997
39.338842 -79.007286 -23.686852
56.648882 -79.007286 -20.075317000000002
20.030184 -76.622314 -26.506646999999997
1.5505999999999993 -76.622314 -22.465176
3.3511179999999996 -79.007286 -20.075317000000002
20.661158 -79.007286 -23.686852
-12.548842999999998 -76.622314 -15.020866
-20.203331 -76.622314 -5.263916
-17.026031000000003 -79.007286 -4.703938
-9.855988000000004 -79.007286 -13.422938
-20.203331 -76.622314 5.263916
-12.548842999999998 -76.622314 15.020866
-9.855988000000004 -79.007286 13.422938
-17.026031000000003 -79.007286 4.703938
1.5505999999999993 -76.622314 22.465176
20.030184 -76.622314 26.506646999999997
20.661158 -79.007286 23.686852
3.3511179999999996 -79.007286 20.075317000000002
38.637874 -80.649788 21.27829
54.648628 -80.649788 18.033989000000002
51.74543 -81.594009 15.817425
37.675335000000004 -81.594009 18.645167999999998
66.86440999999999 -80.649788 12.058048
73.496265 -80.649788 4.225625
68.427979 -81.594009 3.724049
62.599976 -81.594009 10.550819
73.496265 -80.649788 -4.225625
66.86440999999999 -80.649788 -12.058048
62.599976 -81.594009 -10.550819
68.427979 -81.594009 -3.724049
54.648628 -80.649788 -18.033989000000002
38.637874 -80.649788 -21.27829
37.675335000000004 -81.594009 -18.645167999999998
51.74543 -81.594009 -15.817425
21.362126 -80.649788 -21.27829
5.351372000000001 -80.649788 -18.033989000000002
8.254570000000001 -81.594009 -15.817425
22.324665 -81.594009 -18.645167999999998
-6.8644099999999995 -80.649788 -12.058048
-13.496265000000001 -80.649788 -4.225625
-8.427979 -81.594009 -3.724049
-2.599975999999998 -81.594009 -10.550819
-13.496265000000001 -80.649788 4.225625
-6.8644099999999995 -80.649788 12.058048
-2.599975999999998 -81.594009 10.550819
-8.427979 -81.594009 3.724049
5.351372000000001 -80.649788 18.033989000000002
21.362126 -80.649788 21.27829
22.324665 -81.594009 18.645167999999998
8.254570000000001 -81.594009 15.817425
36.043602 -82.020882 14.228792000000002
46.463004999999995 -82.020882 12.134748
36.521226999999996 -82.127602 7.638761
55.009935 -82.020882 7.9877970000000005
59.325779 -82.020882 2.9323349999999997
45.743623 -82.127602 3.1640770000000003
59.325779 -82.020882 -2.9323349999999997
55.009935 -82.020882 -7.9877970000000005
45.743623 -82.127602 -3.1640770000000003
46.463004999999995 -82.020882 -12.134748
36.043602 -82.020882 -14.228792000000002
36.521226999999996 -82.127602 -7.638761
23.956398 -82.020882 -14.228792000000002
13.536995000000001 -82.020882 -12.134748
23.478773 -82.127602 -7.638761
4.990064999999998 -82.020882 -7.9877970000000005
0.6742210000000028 -82.020882 -2.9323349999999997
14.256376999999999 -82.127602 -3.1640770000000003
0.6742210000000028 -82.020882 2.9323349999999997
4.990064999999998 -82.020882 7.9877970000000005
14.256376999999999 -82.127602 3.1640770000000003
13.536995000000001 -82.020882 12.134748
23.956398 -82.020882 14.228792000000002
23.478773 -82.127602 7.638761
62.716927 -49.500183 34.826698
62.703537 -56.25407 33.170066999999996
41.460636 -56.25407 39.137337
41.465328 -49.500183 41.091991
87.73407 -49.500183 8.1604
87.710442 -56.25407 7.772228
78.91133099999999 -56.25407 22.178469
78.931358 -49.500183 23.286139000000002
78.931358 -49.500183 -23.286139000000002
78.91133099999999 -56.25407 -22.178469
87.710442 -56.25407 -7.772228
87.73407 -49.500183 -8.1604
41.465328 -49.500183 -41.091991
41.460636 -56.25407 -39.137337
62.703537 -56.25407 -33.170066999999996
62.716927 -49.500183 -34.826698
-2.7169269999999983 -49.500183 -34.826691
-2.703536999999997 -56.25407 -33.170066999999996
18.539364 -56.25407 -39.137337
18.534672 -49.500183 -41.091991
-27.734069999999996 -49.500183 -8.160397999999999
-27.710442000000008 -56.25407 -7.772228
-18.911330999999997 -56.25407 -22.178469
-18.931358000000003 -49.500183 -23.286135
-18.931358000000003 -49.500183 23.286135
-18.911330999999997 -56.25407 22.178469
-27.710442000000008 -56.25407 7.772228
-27.734069999999996 -49.500183 8.160397999999999
18.534672 -49.500183 41.091991
18.539364 -56.25407 39.137337
-2.703536999999997 -56.25407 33.170066999999996
-2.7169269999999983 -49.500183 34.826691
41.286063 -29.79215 42.790306
62.205379 -29.79215 36.266102000000004
62.555164000000005 -40.546757 35.896503
41.408641 -40.546757 42.354240000000004
78.166279 -29.79215 24.248589000000003
86.83133699999999 -29.79215 8.497684
87.448601 -40.546757 8.411076
78.689423 -40.546757 24.00145
86.83133699999999 -29.79215 -8.497684
78.166279 -29.79215 -24.248589000000003
78.689423 -40.546757 -24.00145
87.448601 -40.546757 -8.411076
62.205379 -29.79215 -36.266102000000004
41.286063 -29.79215 -42.790306
41.408641 -40.546757 -42.354240000000004
62.555164000000005 -40.546757 -35.896503
18.713938 -29.79215 -42.790290999999996
-2.2053790000000006 -29.79215 -36.266064
-2.555164000000005 -40.546757 -35.896481
18.591358999999997 -40.546757 -42.354233
-18.166278999999996 -29.79215 -24.24855
-26.831336999999998 -29.79215 -8.497669
-27.448601000000004 -40.546757 -8.411067
-18.689422999999998 -40.546757 -24.001431
-26.831336999999998 -29.79215 8.497669
-18.166278999999996 -29.79215 24.24855
-18.689422999999998 -40.546757 24.001431
-27.448601000000004 -40.546757 8.411067
-2.2053790000000006 -29.79215 36.266064
18.713938 -29.79215 42.790290999999996
18.591358999999997 -40.546757 42.354233
-2.555164000000005 -40.546757 35.896481
40.722053 -8.3334 41.789055
60.595951 -8.3334 35.4175
61.615053 -18.807949 36.132571999999996
41.079188 -18.807949 42.632748
75.759232 -8.3334 23.681181
83.99128 -8.3334 8.298841
85.78961899999999 -18.807949 8.466396000000001
77.28338600000001 -18.807949 24.159307000000002
83.99128 -8.3334 -8.298841
75.759232 -8.3334 -23.681181
77.28338600000001 -18.807949 -24.159307000000002
85.78961899999999 -18.807949 -8.466396000000001
60.595951 -8.3334 -35.4175
40.722053 -8.3334 -41.789055
41.079188 -18.807949 -42.632748
61.615053 -18.807949 -36.132571999999996
19.277948000000002 -8.3334 -41.789047
-0.5959509999999995 -8.3334 -35.41748
-1.6150530000000032 -18.807949 -36.132529999999996
18.920813000000003 -18.807949 -42.632732
-15.759231999999997 -8.3334 -23.681162
-23.991280000000003 -8.3334 -8.298834
-25.789618999999995 -18.807949 -8.466382000000001
-17.283386 -18.807949 -24.159271
-23.991280000000003 -8.3334 8.298834
-15.759231999999997 -8.3334 23.681162
-17.283386 -18.807949 24.159269000000002
-25.789618999999995 -18.807949 8.466382000000001
-0.5959509999999995 -8.3334 35.41748
19.277948000000002 -8.3334 41.789047
18.920813000000003 -18.807949 42.632732
-1.6150530000000032 -18.807949 36.132529999999996
38.118133 18.356945 32.595001
36.984477999999996 23.787193 28.100022999999997
49.930586 23.787193 23.815639
53.165529 18.356945 27.625271
39.203764 10.937869000000001 36.698853
56.263435 10.937869000000001 31.103405
58.824127000000004 1.7246 33.766998
40.101133000000004 1.7246 39.841637
64.646317 18.356945 18.471079
59.808149 23.787193 15.923846
65.170624 23.787193 5.580359
70.879166 18.356945 6.473012000000001
69.279533 10.937869000000001 20.796656
76.345898 10.937869000000001 7.287986999999999
80.86463499999999 1.7246 7.912103
73.109299 1.7246 22.577606
70.879166 18.356945 -6.473012000000001
65.170624 23.787193 -5.580359
59.808149 23.787193 -15.923846
64.646317 18.356945 -18.471079
76.345898 10.937869000000001 -7.287988
69.279533 10.937869000000001 -20.796656
73.109299 1.7246 -22.577606
80.86463499999999 1.7246 -7.912103
53.165529 18.356945 -27.625271
49.930586 23.787193 -23.815639
36.984477999999996 23.787193 -28.100022999999997
38.118133 18.356945 -32.595001
56.263435 10.937869000000001 -31.103405
39.203764 10.937869000000001 -36.698853
40.101133000000004 1.7246 -39.841637
58.824127000000004 1.7246 -33.766998
21.881866000000002 18.356945 -32.595001
23.015522 23.787193 -28.100022999999997
10.069414000000002 23.787193 -23.815639
6.834471000000001 18.356945 -27.625271
20.796235000000003 10.937869000000001 -36.698853
3.7365650000000024 10.937869000000001 -31.103405
1.1758729999999993 1.7246 -33.766994
19.898867 1.7246 -39.841637
-4.646316999999996 18.356945 -18.471079
0.19185099999999977 23.787193 -15.923846
-5.170623999999997 23.787193 -5.580359
-10.879165999999998 18.356945 -6.473012000000001
-9.279533 10.937869000000001 -20.796656
-16.345898 10.937869000000001 -7.287986999999999
-20.864635 1.7246 -7.912102
-13.109299 1.7246 -22.577602
-10.879165999999998 18.356945 6.473012000000001
-5.170623999999997 23.787193 5.580359
0.19185099999999977 23.787193 15.923846
-4.646316999999996 18.356945 18.471079
-16.345898 10.937869000000001 7.287988
-9.279533 10.937869000000001 20.796656
-13.109299 1.7246 22.577602
-20.864635 1.7246 7.912102
6.834471000000001 18.356945 27.625271
10.069414000000002 23.787193 23.815639
23.015522 23.787193 28.100022999999997
21.881866000000002 18.356945 32.595001
3.7365650000000024 10.937869000000001 31.103405
20.796235000000003 10.937869000000001 36.698853
19.898867 1.7246 39.841637
1.1758729999999993 1.7246 33.766994
32.340831 36.700245 4.515192
36.189415 36.012436 7.507217
32.267483 36.012436 8.80514
35.651252 36.700245 1.8702599999999998
41.020604 36.012436 1.8116560000000002
39.396104 36.012436 4.945168
35.651252 36.700245 -1.8702599999999998
39.396104 36.012436 -4.945168
41.020604 36.012436 -1.8116560000000002
32.340831 36.700245 -4.515192
32.267483 36.012436 -8.80514
36.189415 36.012436 -7.507217
27.659169 36.700245 -4.515192
23.810585 36.012436 -7.507217
27.732517 36.012436 -8.80514
24.348748 36.700245 -1.8702599999999998
18.979396 36.012436 -1.8116560000000002
20.603896 36.012436 -4.945168
24.348748 36.700245 1.8702599999999998
20.603896 36.012436 4.945168
18.979396 36.012436 1.8116560000000002
27.659169 36.700245 4.515192
27.732517 36.012436 8.80514
23.810585 36.012436 7.507217
32.74666 35.473007 10.891707
36.358306999999996 34.800789 12.264403
33.749708999999996 34.006809000000004 15.070039000000001
30.0 34.810444 13.231029000000001
41.709803 34.810444 9.355777999999999
40.685943 34.006809000000004 12.774559
37.697255 35.473007 9.253359
43.455155 32.001083 16.07799
38.33349 33.07312 16.074265
45.42381 33.07312 12.323122
30.0 33.07312 17.42749
34.715227999999996 32.001083 18.970385
41.581602000000004 35.473007 6.149883999999999
45.350286 34.800789 5.0800980000000004
45.988822 34.006809000000004 8.537736
46.560137 34.810444 0.0
48.861892999999995 34.006809000000004 2.995902
43.632188 35.473007 2.194503
53.743694000000005 32.001083 3.7673129999999997
50.118818000000005 33.07312 6.658192
51.812553 33.07312 0.0
50.123497 32.001083 10.750223
43.632188 35.473007 -2.194503
45.350286 34.800789 -5.0800980000000004
48.861892999999995 34.006809000000004 -2.995902
41.709803 34.810444 -9.355777999999999
45.988822 34.006809000000004 -8.537736
41.581602000000004 35.473007 -6.149883999999999
50.123497 32.001083 -10.750223
50.118818000000005 33.07312 -6.658192
45.42381 33.07312 -12.323122
53.743694000000005 32.001083 -3.7673129999999997
37.697255 35.473007 -9.253359
36.358306999999996 34.800789 -12.264403
40.685943 34.006809000000004 -12.774559
30.0 34.810444 -13.231029000000001
33.749708999999996 34.006809000000004 -15.070039000000001
32.74666 35.473007 -10.891707
34.715227999999996 32.001083 -18.970385
38.33349 33.07312 -16.074265
30.0 33.07312 -17.42749
43.455155 32.001083 -16.07799
27.25334 35.473007 -10.891707
23.641693 34.800789 -12.264403
26.250291 34.006809000000004 -15.070039000000001
18.290197 34.810444 -9.355777999999999
19.314057 34.006809000000004 -12.774559
22.302745 35.473007 -9.253359
16.544845000000002 32.001083 -16.07799
21.666510000000002 33.07312 -16.074265
14.576189999999999 33.07312 -12.323122
25.284772 32.001083 -18.970385
18.418398 35.473007 -6.149883999999999
14.649714000000001 34.800789 -5.0800980000000004
14.011178 34.006809000000004 -8.537736
13.439862999999999 34.810444 0.0
11.138107000000002 34.006809000000004 -2.995902
16.367812 35.473007 -2.194503
6.256305999999999 32.001083 -3.7673129999999997
9.881181999999999 33.07312 -6.658192
8.187446999999999 33.07312 -0.0
9.876503 32.001083 -10.750223
16.367812 35.473007 2.194503
14.649714000000001 34.800789 5.0800980000000004
11.138107000000002 34.006809000000004 2.995902
18.290197 34.810444 9.355777999999999
14.011178 34.006809000000004 8.537736
18.418398 35.473007 6.149883999999999
9.876503 32.001083 10.750223
9.881181999999999 33.07312 6.658192
14.576189999999999 33.07312 12.323122
6.256305999999999 32.001083 3.7673129999999997
22.302745 35.473007 9.253359
23.641693 34.800789 12.264403
19.314057 34.006809000000004 12.774559
26.250291 34.006809000000004 15.070039000000001
27.25334 35.473007 10.891707
25.284772 32.001083 18.970385
21.666510000000002 33.07312 16.074265
16.544845000000002 32.001083 16.07799
40.10653 30.787243 19.494204
35.565895999999995 29.395264 22.39278
30.0 30.787243 21.135345
48.705397000000005 30.787243 14.944970000000001
45.882585999999996 29.395264 18.978573
48.433197 25.931572 22.026363
41.770692 27.788818 22.70414
51.785472999999996 27.788818 17.405823
30.0 27.788818 24.615513
36.459733 25.931572 25.988861
54.399336 30.787243 8.074777000000001
53.753965 29.395264 12.689638
56.453441999999995 30.787243 0.0
58.027294 29.395264 4.446961
62.528255 25.931572 5.161105
58.416998 27.788818 9.404377
60.809345 27.788818 0.0
57.568661 25.931572 14.727482
54.399336 30.787243 -8.074777000000001
58.027294 29.395264 -4.446961
48.705397000000005 30.787243 -14.944970000000001
53.753965 29.395264 -12.689638
57.568661 25.931572 -14.727482
58.417 27.788818 -9.404377
51.785472999999996 27.788818 -17.405823
62.528255 25.931572 -5.161105
40.10653 30.787243 -19.494204
45.882585999999996 29.395264 -18.978573
30.0 30.787243 -21.135345
35.565895999999995 29.395264 -22.39278
36.459733 25.931572 -25.988861
41.770693 27.788818 -22.70414
30.0 27.788818 -24.615513
48.433199 25.931572 -22.026363
19.89347 30.787243 -19.494204
24.434104 29.395264 -22.39278
11.294602999999999 30.787243 -14.944970000000001
14.117414000000002 29.395264 -18.978573
11.566803 25.931572 -22.026363
18.229308 27.788818 -22.70414
8.214527 27.788818 -17.405823
23.540267 25.931572 -25.988861
5.600664000000002 30.787243 -8.074777000000001
6.246034999999999 29.395264 -12.689638
3.546558000000001 30.787243 -0.0
1.9727059999999987 29.395264 -4.446961
-2.5282550000000015 25.931572 -5.161105
1.5830020000000005 27.788818 -9.404377
-0.8093450000000004 27.788818 0.0
2.4313390000000012 25.931572 -14.727482
5.600664000000002 30.787243 8.074777000000001
1.9727059999999987 29.395264 4.446961
11.294602999999999 30.787243 14.944970000000001
6.246034999999999 29.395264 12.689638
2.4313390000000012 25.931572 14.727482
1.5829999999999984 27.788818 9.404377
8.214527 27.788818 17.405823
-2.5282550000000015 25.931572 5.161105
19.89347 30.787243 19.494204
14.117414000000002 29.395264 18.978573
24.434104 29.395264 22.39278
23.540267 25.931572 25.988861
18.229307 27.788818 22.70414
11.566801000000002 25.931572 22.026363
41.432339999999996 -59.048336 38.056637
52.353529 -61.583293999999995 34.819702
41.315157 -63.903355000000005 35.908833
30.0 -61.583293999999995 37.751059999999995
71.37241399999999 -61.583293999999995 26.694022999999998
62.288403 -63.903351 30.433811
62.622791 -59.048336 32.254143
61.647408 -68.076378 28.460976000000002
52.025824 -66.05291700000001 32.741207
70.765888 -66.05291 25.100573999999998
30.0 -66.05291700000001 35.497589000000005
41.090527 -68.076385 33.581089
78.790565 -59.048336 21.566055
83.966194 -61.583293999999995 14.422787
78.290447 -63.903351 20.348928
88.509434 -61.583293999999995 0.0
86.977844 -63.903351 7.131083
87.567947 -59.048336 7.557614
85.846695 -68.076378 6.668817999999999
83.175026 -66.05291 13.561845000000002
87.651657 -66.05291 0.0
77.331768 -68.076378 19.029831
87.567947 -59.048336 -7.557614
83.966194 -61.583293999999995 -14.422787
86.977844 -63.903351 -7.131083
71.37241399999999 -61.583293999999995 -26.694022999999998
78.290447 -63.903351 -20.348928
78.790565 -59.048336 -21.566055
77.331768 -68.076378 -19.029831
83.175026 -66.05291 -13.561845000000002
70.765888 -66.05291 -25.100573999999998
85.846695 -68.076378 -6.668817999999999
62.622791 -59.048336 -32.254143
52.353529 -61.583293999999995 -34.819702
62.288403 -63.903351 -30.433811
30.0 -61.583293999999995 -37.751059999999995
41.315157 -63.903351 -35.908833
41.432339999999996 -59.048336 -38.056637
41.090527 -68.076378 -33.581089
52.025824 -66.05291 -32.741207
30.0 -66.05291 -35.497589000000005
61.647408 -68.076378 -28.460976000000002
18.56766 -59.048336 -38.056637
7.646470999999998 -61.583293999999995 -34.819702
18.684843 -63.903351 -35.908833
-11.372414 -61.583293999999995 -26.694022999999998
-2.2884030000000024 -63.903351 -30.433811
-2.6227909999999994 -59.048336 -32.254143
-1.6474080000000022 -68.076378 -28.460976000000002
7.974176 -66.05291 -32.741207
-10.765888000000004 -66.05291 -25.100573999999998
18.909473 -68.076378 -33.581089
-18.790565 -59.048336 -21.566055
-23.966193999999994 -61.583293999999995 -14.422787
-18.290447 -63.903351 -20.348928
-28.509434 -61.583293999999995 -0.0
-26.977843999999997 -63.903351 -7.131083
-27.567946999999997 -59.048336 -7.557614
-25.846694999999997 -68.076378 -6.668817999999999
-23.175026000000003 -66.05291 -13.561845000000002
-27.651656999999993 -66.05291 -0.0
-17.331767999999997 -68.076378 -19.029831
-27.567946999999997 -59.048336 7.557614
-23.966193999999994 -61.583293999999995 14.422787
-26.977843999999997 -63.903351 7.131083
-11.372414 -61.583293999999995 26.694022999999998
-18.290447 -63.903351 20.348928
-18.790565 -59.048336 21.566055
-17.331767999999997 -68.076378 19.029831
-23.175026000000003 -66.05291 13.561845000000002
-10.765888000000004 -66.05291 25.100573999999998
-25.846694999999997 -68.076378 6.668817999999999
-2.6227909999999994 -59.048336 32.254143
7.646470999999998 -61.583293999999995 34.819702
-2.2884030000000024 -63.903351 30.433811
18.684843 -63.903355000000005 35.908833
18.56766 -59.048336 38.056637
18.909473 -68.076385 33.581089
7.974176 -66.05291700000001 32.741207
-1.6474080000000022 -68.076378 28.460976000000002
51.455753 -70.018158 30.381474
40.732503 -71.860947 30.890327000000003
30.0 -70.01816600000001 32.939201000000004
69.710789 -70.018158 23.291515
60.625769000000005 -71.860947 26.180473000000003
59.25293 -75.180328 23.714760000000002
50.627977 -73.58744 27.722332
68.178722 -73.58744 21.252922
30.0 -73.58744 30.056192
40.251405 -75.180328 27.981031
81.79875200000001 -70.018158 12.58441
75.80381 -71.860947 17.505020000000002
86.159515 -70.018158 0.0
84.04386099999999 -71.860947 6.134462999999999
81.621284 -75.180328 5.556711
79.800331 -73.58744 11.482957
83.992855 -73.58744 -0.0
73.75060300000001 -75.180328 15.856373999999999
81.79875200000001 -70.018158 -12.58441
84.04386099999999 -71.860947 -6.134462999999999
69.710789 -70.018158 -23.291515
75.80381 -71.860947 -17.505020000000002
73.75060300000001 -75.180328 -15.856373999999999
79.800331 -73.58744 -11.482957
68.178722 -73.58744 -21.252922
81.621284 -75.180328 -5.556711
51.455753 -70.018158 -30.381474
60.625769000000005 -71.860947 -26.180473000000003
30.0 -70.018158 -32.939201000000004
40.732503 -71.860947 -30.890327000000003
40.251405 -75.180328 -27.981031
50.627977 -73.58744 -27.722332
30.0 -73.58744 -30.056192
59.25293 -75.180328 -23.714760000000002
8.544246999999999 -70.018158 -30.381474
19.267497 -71.860947 -30.890327000000003
-9.710788999999998 -70.018158 -23.291515
-0.6257690000000018 -71.860947 -26.180473000000003
0.7470700000000008 -75.180328 -23.714760000000002
9.372023000000002 -73.58744 -27.722332
-8.178722 -73.58744 -21.252922
19.748595 -75.180328 -27.981031
-21.798752 -70.018158 -12.58441
-15.803809999999999 -71.860947 -17.505020000000002
-26.159515 -70.018158 -0.0
-24.043861 -71.860947 -6.134462999999999
-21.621284000000003 -75.180328 -5.556711
-19.800331 -73.58744 -11.482957
-23.992855000000006 -73.58744 0.0
-13.750603000000005 -75.180328 -15.856373999999999
-21.798752 -70.018158 12.58441
-24.043861 -71.860947 6.134462999999999
-9.710788999999998 -70.018158 23.291515
-15.803809999999999 -71.860947 17.505020000000002
-13.750603000000005 -75.180328 15.856373999999999
-19.800331 -73.58744 11.482957
-8.178722 -73.58744 21.252922
-21.621284000000003 -75.180328 5.556711
8.544246999999999 -70.018158 30.381474
-0.6257690000000018 -71.860947 26.180473000000003
19.267497 -71.860947 30.890327000000003
19.748595 -75.180328 27.981031
9.372023000000002 -73.58744 27.722332
0.7470700000000008 -75.180328 23.714760000000002
49.574619 -76.622314 24.951181
39.664608 -77.901825 25.06329
30.0 -76.622314 27.051746
66.229145 -76.622314 19.128462
57.578474 -77.901825 21.241889999999998
55.669357000000005 -79.927132 18.995878
48.335773 -79.007286 22.296858
63.936256 -79.007286 17.093564999999998
30.0 -79.007286 24.173962
38.995578 -79.927132 22.413221
77.257301 -76.622314 10.335111
71.246284 -77.901825 14.202942000000002
81.23574099999999 -76.622314 -0.0
78.666443 -77.901825 4.977282
75.29750100000001 -79.927132 4.45101
74.266457 -79.007286 9.235657000000002
77.99309500000001 -79.007286 0.0
68.39101 -79.927132 12.701195
77.257301 -76.622314 -10.335111
78.666443 -77.901825 -4.977282
66.229145 -76.622314 -19.128462
71.246284 -77.901825 -14.202942000000002
68.39101 -79.927132 -12.701195
74.266457 -79.007286 -9.235657000000002
63.936256 -79.007286 -17.093564999999998
75.29750100000001 -79.927132 -4.45101
49.574619 -76.622314 -24.951181
57.578474 -77.901825 -21.241889999999998
30.0 -76.622314 -27.051746
39.664608 -77.901825 -25.06329
38.995578 -79.927132 -22.413221
48.335773 -79.007286 -22.296858
30.0 -79.007286 -24.173962
55.669357000000005 -79.927132 -18.995878
10.425380999999998 -76.622314 -24.951181
20.335392 -77.901825 -25.06329
-6.229145000000003 -76.622314 -19.128462
2.421526 -77.901825 -21.241889999999998
4.3306429999999985 -79.927132 -18.995878
11.664227 -79.007286 -22.296858
-3.936256 -79.007286 -17.093564999999998
21.004421999999998 -79.927132 -22.413221
-17.257301 -76.622314 -10.335111
-11.246284000000003 -77.901825 -14.202942000000002
-21.235740999999997 -76.622314 0.0
-18.666443 -77.901825 -4.977282
-15.297501000000004 -79.927132 -4.45101
-14.266457000000003 -79.007286 -9.235657000000002
-17.993095000000004 -79.007286 0.0
-8.391009999999994 -79.927132 -12.701195
-17.257301 -76.622314 10.335111
-18.666443 -77.901825 4.977282
-6.229145000000003 -76.622314 19.128462
-11.246284000000003 -77.901825 14.202942000000002
-8.391009999999994 -79.927132 12.701195
-14.266457000000003 -79.007286 9.235657000000002
-3.936256 -79.007286 17.093564999999998
-15.297501000000004 -79.927132 4.45101
10.425380999999998 -76.622314 24.951181
2.421526 -77.901825 21.241889999999998
20.335392 -77.901825 25.06329
21.004421999999998 -79.927132 22.413221
11.664227 -79.007286 22.296858
4.3306429999999985 -79.927132 18.995878
46.959498999999994 -80.649788 20.029636
38.214777 -81.19787600000001 20.087217000000003
30.0 -80.649788 21.715868
61.389015 -80.649788 15.355432999999998
53.402164 -81.19787600000001 17.02829
49.493887 -81.860809 14.240029999999999
45.030527 -81.594009 17.606302
57.656445000000005 -81.594009 13.418830999999999
30.0 -81.594009 18.977098
36.968595 -81.860809 16.757307
70.943825 -80.649788 8.296543
65.019596 -81.19787600000001 11.379316000000001
74.390743 -80.649788 0.0
71.31039799999999 -81.19787600000001 3.994425
64.537079 -81.860809 3.381139
66.286869 -81.594009 7.2927669999999996
69.112087 -81.594009 0.0
59.348953 -81.860809 9.458373
70.943825 -80.649788 -8.296543
71.31039799999999 -81.19787600000001 -3.994425
61.389015 -80.649788 -15.355432999999998
65.019596 -81.19787600000001 -11.379316000000001
59.348953 -81.860809 -9.458373
66.286869 -81.594009 -7.2927669999999996
57.656445000000005 -81.594009 -13.418830999999999
64.537079 -81.860809 -3.381139
46.959498999999994 -80.649788 -20.029636
53.402164 -81.19787600000001 -17.02829
30.0 -80.649788 -21.715868
38.214777 -81.19787600000001 -20.087217000000003
36.968595 -81.860809 -16.757307
45.030527 -81.594009 -17.606302
30.0 -81.594009 -18.977098
49.493887 -81.860809 -14.240029999999999
13.040501000000003 -80.649788 -20.029636
21.785223000000002 -81.19787600000001 -20.087217000000003
-1.3890150000000006 -80.649788 -15.355432999999998
6.597835999999997 -81.19787600000001 -17.02829
10.506113 -81.860809 -14.240029999999999
14.969473 -81.594009 -17.606302
2.3435549999999985 -81.594009 -13.418830999999999
23.031405 -81.860809 -16.757307
-10.943824999999997 -80.649788 -8.296543
-5.019596 -81.19787600000001 -11.379316000000001
-14.390743 -80.649788 0.0
-11.310398 -81.19787600000001 -3.994425
-4.5370789999999985 -81.860809 -3.381139
-6.286869000000003 -81.594009 -7.2927669999999996
-9.112087000000002 -81.594009 0.0
0.6510469999999984 -81.860809 -9.458373
-10.943824999999997 -80.649788 8.296543
-11.310398 -81.19787600000001 3.994425
-1.3890150000000006 -80.649788 15.355432999999998
-5.019596 -81.19787600000001 11.379316000000001
0.6510469999999984 -81.860809 9.458373
-6.286869000000003 -81.594009 7.2927669999999996
2.3435549999999985 -81.594009 13.418830999999999
-4.5370789999999985 -81.860809 3.381139
13.040501000000003 -80.649788 20.029636
6.597835999999997 -81.19787600000001 17.02829
21.785223000000002 -81.19787600000001 20.087217000000003
23.031405 -81.860809 16.757307
14.969473 -81.594009 17.606302
10.506113 -81.860809 14.240029999999999
41.670254 -82.020882 13.670171
35.645949 -82.100922 11.156863000000001
30.0 -82.020882 14.263901999999998
50.787639999999996 -82.020882 10.086098
42.267284000000004 -82.100922 9.826138
30.0 -82.127602 6.57538
39.582698 -82.127602 4.649495
58.174459 -82.020882 5.662368
50.251850000000005 -82.100922 5.952046
59.398135999999994 -82.020882 0.0
52.994488000000004 -82.100922 2.739395
43.551973000000004 -82.127602 0.0
58.174459 -82.020882 -5.662368
52.994488000000004 -82.100922 -2.739395
50.787639999999996 -82.020882 -10.086098
50.251850000000005 -82.100922 -5.952046
39.582698 -82.127602 -4.649495
41.670254 -82.020882 -13.670171
42.267284000000004 -82.100922 -9.826138
30.0 -82.020882 -14.263901999999998
35.645949 -82.100922 -11.156863000000001
30.0 -82.127602 -6.57538
18.329746 -82.020882 -13.670171
24.354051 -82.100922 -11.156863000000001
9.21236 -82.020882 -10.086098
17.732716 -82.100922 -9.826138
20.417302 -82.127602 -4.649495
1.8255409999999976 -82.020882 -5.662368
9.748149999999999 -82.100922 -5.952046
0.6018640000000026 -82.020882 0.0
7.0055119999999995 -82.100922 -2.739395
16.448026 -82.127602 0.0
1.8255409999999976 -82.020882 5.662368
7.0055119999999995 -82.100922 2.739395
9.21236 -82.020882 10.086098
9.748149999999999 -82.100922 5.952046
20.417302 -82.127602 4.649495
18.329746 -82.020882 13.670171
17.732716 -82.100922 9.826138
24.354051 -82.100922 11.156863000000001
71.66367 -49.500183 29.653948
62.733799 -53.103638000000004 34.045246
52.510891 -49.500183 38.68063
62.656265000000005 -45.34684 35.461441
52.501678 -56.25407 36.840675
71.64661799999999 -56.25407 28.243376
30.0 -56.25407 39.942177
41.471241 -53.103638000000004 40.169959999999996
41.444071 -45.34684 41.840923
30.0 -49.500183 41.937031
88.921345 -49.500183 0.0
87.763847 -53.103638000000004 7.9772940000000006
84.346115 -49.500183 16.022033999999998
87.627018 -45.34684 8.309132
84.323875 -56.25407 15.259901999999999
88.897232 -56.25407 0.0
78.956593 -53.103638000000004 22.763638
78.84063 -45.34684 23.71055
71.66367 -49.500183 -29.653948
78.956593 -53.103638000000004 -22.763638
84.346115 -49.500183 -16.022033999999998
78.84063 -45.34684 -23.71055
84.323875 -56.25407 -15.259901999999999
71.64661799999999 -56.25407 -28.243376
87.763847 -53.103638000000004 -7.9772940000000006
87.627018 -45.34684 -8.309132
30.0 -49.500183 -41.937031
41.471241 -53.103638000000004 -40.169959999999996
52.510891 -49.500183 -38.68063
41.444071 -45.34684 -41.840923
52.501678 -56.25407 -36.840675
30.0 -56.25407 -39.942177
62.733799 -53.103638000000004 -34.045246
62.656265000000005 -45.34684 -35.461441
-11.663670000000003 -49.500183 -29.653941999999997
-2.7337989999999976 -53.103638000000004 -34.045242
7.489108999999999 -49.500183 -38.680626000000004
-2.6562650000000048 -45.34684 -35.46143
7.498322000000002 -56.25407 -36.840675
-11.646617999999997 -56.25407 -28.243376
18.528759 -53.103638000000004 -40.169959999999996
18.555929 -45.34684 -41.840919
