316.229145 -76.622314 -19.128462
321.246284 -77.901825 -14.202942000000002
318.39101 -79.927132 -12.701195
324.266457 -79.007286 -9.235657000000002
313.936256 -79.007286 -17.093564999999998
325.297501 -79.927132 -4.45101
299.574619 -76.622314 -24.951181
307.578474 -77.901825 -21.241889999999998
280.0 -76.622314 -27.051746
289.664608 -77.901825 -25.06329
288.995578 -79.927132 -22.413221
298.335773 -79.007286 -22.296858
280.0 -79.007286 -24.173962
305.669357 -79.927132 -18.995878
260.425381 -76.622314 -24.951181
270.335392 -77.901825 -25.06329
243.77085499999998 -76.622314 -19.128462
252.421526 -77.901825 -21.241889999999998
254.330643 -79.927132 -18.995878
261.664227 -79.007286 -22.296858
246.06374399999999 -79.007286 -17.093564999999998
271.004422 -79.927132 -22.413221
232.74269900000002 -76.622314 -10.335111
238.753716 -77.901825 -14.202942000000002
228.764259 -76.622314 0.0
231.33355699999998 -77.901825 -4.977282
234.702499 -79.927132 -4.45101
235.733543 -79.007286 -9.235657000000002
232.006905 -79.007286 0.0
241.60899 -79.927132 -12.701195
232.74269900000002 -76.622314 10.335111
231.33355699999998 -77.901825 4.977282
243.77085499999998 -76.622314 19.128462
238.753716 -77.901825 14.202942000000002
241.60899 -79.927132 12.701195
235.733543 -79.007286 9.235657000000002
246.06374399999999 -79.007286 17.093564999999998
234.702499 -79.927132 4.45101
260.425381 -76.622314 24.951181
252.421526 -77.901825 21.241889999999998
270.335392 -77.901825 25.06329
271.004422 -79.927132 22.413221
261.664227 -79.007286 22.296858
254.330643 -79.927132 18.995878
296.959499 -80.649788 20.029636
288.214777 -81.19787600000001 20.087217000000003
280.0 -80.649788 21.715868
311.389015 -80.649788 15.355432999999998
303.40216399999997 -81.19787600000001 17.02829
299.493887 -81.860809 14.240029999999999
295.030527 -81.594009 17.606302
307.656445 -81.594009 13.418830999999999
280.0 -81.594009 18.977098
286.968595 -81.860809 16.757307
320.943825 -80.649788 8.296543
315.019596 -81.19787600000001 11.379316000000001
324.390743 -80.649788 0.0
321.31039799999996 -81.19787600000001 3.994425
314.537079 -81.860809 3.381139
316.286869 -81.594009 7.2927669999999996
319.112087 -81.594009 0.0
309.348953 -81.860809 9.458373
320.943825 -80.649788 -8.296543
321.31039799999996 -81.19787600000001 -3.994425
311.389015 -80.649788 -15.355432999999998
315.019596 -81.19787600000001 -11.379316000000001
309.348953 -81.860809 -9.458373
316.286869 -81.594009 -7.2927669999999996
307.656445 -81.594009 -13.418830999999999
314.537079 -81.860809 -3.381139
296.959499 -80.649788 -20.029636
303.40216399999997 -81.19787600000001 -17.02829
280.0 -80.649788 -21.715868
288.214777 -81.19787600000001 -20.087217000000003
286.968595 -81.860809 -16.757307
295.030527 -81.594009 -17.606302
280.0 -81.594009 -18.977098
299.493887 -81.860809 -14.240029999999999
263.040501 -80.649788 -20.029636
271.785223 -81.19787600000001 -20.087217000000003
248.610985 -80.649788 -15.355432999999998
256.59783600000003 -81.19787600000001 -17.02829
260.506113 -81.860809 -14.240029999999999
264.969473 -81.594009 -17.606302
252.34355499999998 -81.594009 -13.418830999999999
273.031405 -81.860809 -16.757307
239.056175 -80.649788 -8.296543
244.980404 -81.19787600000001 -11.379316000000001
235.609257 -80.649788 0.0
238.689602 -81.19787600000001 -3.994425
245.462921 -81.860809 -3.381139
243.713131 -81.594009 -7.2927669999999996
240.887913 -81.594009 0.0
250.651047 -81.860809 -9.458373
239.056175 -80.649788 8.296543
238.689602 -81.19787600000001 3.994425
248.610985 -80.649788 15.355432999999998
244.980404 -81.19787600000001 11.379316000000001
250.651047 -81.860809 9.458373
243.713131 -81.594009 7.2927669999999996
252.34355499999998 -81.594009 13.418830999999999
245.462921 -81.860809 3.381139
263.040501 -80.649788 20.029636
256.59783600000003 -81.19787600000001 17.02829
271.785223 -81.19787600000001 20.087217000000003
273.031405 -81.860809 16.757307
264.969473 -81.594009 17.606302
260.506113 -81.860809 14.240029999999999
291.670254 -82.020882 13.670171
285.645949 -82.100922 11.156863000000001
280.0 -82.020882 14.263901999999998
300.78764 -82.020882 10.086098
292.267284 -82.100922 9.826138
280.0 -82.127602 6.57538
289.582698 -82.127602 4.649495
308.174459 -82.020882 5.662368
300.25185 -82.100922 5.952046
309.398136 -82.020882 0.0
302.994488 -82.100922 2.739395
293.551973 -82.127602 0.0
308.174459 -82.020882 -5.662368
302.994488 -82.100922 -2.739395
300.78764 -82.020882 -10.086098
300.25185 -82.100922 -5.952046
289.582698 -82.127602 -4.649495
291.670254 -82.020882 -13.670171
292.267284 -82.100922 -9.826138
280.0 -82.020882 -14.263901999999998
285.645949 -82.100922 -11.156863000000001
280.0 -82.127602 -6.57538
268.329746 -82.020882 -13.670171
274.354051 -82.100922 -11.156863000000001
259.21236 -82.020882 -10.086098
267.732716 -82.100922 -9.826138
270.417302 -82.127602 -4.649495
251.825541 -82.020882 -5.662368
259.74815 -82.100922 -5.952046
250.601864 -82.020882 0.0
257.005512 -82.100922 -2.739395
266.448026 -82.127602 0.0
251.825541 -82.020882 5.662368
257.005512 -82.100922 2.739395
259.21236 -82.020882 10.086098
259.74815 -82.100922 5.952046
270.417302 -82.127602 4.649495
268.329746 -82.020882 13.670171
267.732716 -82.100922 9.826138
274.354051 -82.100922 11.156863000000001
321.66367 -49.500183 29.653948
312.733799 -53.103638000000004 34.045246
302.510891 -49.500183 38.68063
312.656265 -45.34684 35.461441
302.50167799999997 -56.25407 36.840675
321.646618 -56.25407 28.243376
280.0 -56.25407 39.942177
291.47124099999996 -53.103638000000004 40.169959999999996
291.444071 -45.34684 41.840923
280.0 -49.500183 41.937031
338.921345 -49.500183 0.0
337.763847 -53.103638000000004 7.9772940000000006
334.346115 -49.500183 16.022033999999998
337.627018 -45.34684 8.309132
334.323875 -56.25407 15.259901999999999
338.89723200000003 -56.25407 0.0
328.956593 -53.103638000000004 22.763638
328.84063000000003 -45.34684 23.71055
321.66367 -49.500183 -29.653948
328.956593 -53.103638000000004 -22.763638
334.346115 -49.500183 -16.022033999999998
328.84063000000003 -45.34684 -23.71055
334.323875 -56.25407 -15.259901999999999
321.646618 -56.25407 -28.243376
337.763847 -53.103638000000004 -7.9772940000000006
337.627018 -45.34684 -8.309132
280.0 -49.500183 -41.937031
291.47124099999996 -53.103638000000004 -40.169959999999996
302.510891 -49.500183 -38.68063
291.444071 -45.34684 -41.840923
302.50167799999997 -56.25407 -36.840675
280.0 -56.25407 -39.942177
312.733799 -53.103638000000004 -34.045246
312.656265 -45.34684 -35.461441
238.33633 -49.500183 -29.653941999999997
247.266201 -53.103638000000004 -34.045242
257.489109 -49.500183 -38.680626000000004
247.34373499999998 -45.34684 -35.46143
257.49832200000003 -56.25407 -36.840675
238.353382 -56.25407 -28.243376
268.52875900000004 -53.103638000000004 -40.169959999999996
268.555929 -45.34684 -41.840919
221.078655 -49.500183 0.0
222.236153 -53.103638000000004 -7.9772940000000006
225.653885 -49.500183 -16.022032
222.37298199999998 -45.34684 -8.309127
225.676125 -56.25407 -15.259901999999999
221.102768 -56.25407 -0.0
231.043407 -53.103638000000004 -22.763635999999998
231.15937 -45.34684 -23.710541
238.33633 -49.500183 29.653941999999997
231.043407 -53.103638000000004 22.763635999999998
225.653885 -49.500183 16.022032
231.15937 -45.34684 23.710541
225.676125 -56.25407 15.259901999999999
238.353382 -56.25407 28.243376
222.236153 -53.103638000000004 7.9772940000000006
222.37298199999998 -45.34684 8.309127
268.52875900000004 -53.103638000000004 40.169959999999996
257.489109 -49.500183 38.680626000000004
268.555929 -45.34684 41.840919
257.49832200000003 -56.25407 36.840675
247.266201 -53.103638000000004 34.045242
247.34373499999998 -45.34684 35.46143
291.19431299999997 -24.230526 42.771194
302.158924 -29.79215 40.279301000000004
291.356739 -35.296378999999995 42.661011
280.0 -29.79215 43.670258000000004
321.01223400000003 -29.79215 30.879578000000002
312.407059 -35.296378999999995 36.156509
311.94356700000003 -24.230526 36.249912
302.399591 -40.546757 39.868813
321.457672 -40.546757 30.564863
280.0 -40.546757 43.225231
327.774712 -24.230526 24.237766
333.49636499999997 -29.79215 16.684254
328.467911 -35.296378999999995 24.175306
338.000046 -29.79215 0.0
337.187233 -35.296378999999995 8.472002
336.369324 -24.230526 8.493893
334.0774 -40.546757 16.514206
338.630005 -40.546757 0.0
336.369324 -24.230526 -8.493893
333.49636499999997 -29.79215 -16.684254
337.187233 -35.296378999999995 -8.472002
321.01223400000003 -29.79215 -30.879578000000002
328.467911 -35.296378999999995 -24.175306
327.774712 -24.230526 -24.237766
334.0774 -40.546757 -16.514206
321.457672 -40.546757 -30.564863
311.94356700000003 -24.230526 -36.249912
302.158924 -29.79215 -40.279301000000004
312.407059 -35.296378999999995 -36.156509
280.0 -29.79215 -43.670258000000004
291.356739 -35.296378999999995 -42.661011
291.19431299999997 -24.230526 -42.771194
302.399591 -40.546757 -39.868813
280.0 -40.546757 -43.225231
268.80568800000003 -24.230526 -42.771179
257.841076 -29.79215 -40.279270000000004
268.643262 -35.296378999999995 -42.660999
238.987766 -29.79215 -30.879535999999998
247.592941 -35.296378999999995 -36.156479
248.056433 -24.230526 -36.24987
257.600409 -40.546757 -39.868797
238.542328 -40.546757 -30.564842
232.225288 -24.230526 -24.237724
226.503635 -29.79215 -16.684223
231.53208899999998 -35.296378999999995 -24.175278
221.999954 -29.79215 0.0
222.812767 -35.296378999999995 -8.471991000000001
223.630676 -24.230526 -8.493876
225.9226 -40.546757 -16.514191
221.369995 -40.546757 0.0
223.630676 -24.230526 8.493876
226.503635 -29.79215 16.684223
222.812767 -35.296378999999995 8.471991000000001
238.987766 -29.79215 30.879535999999998
231.53208899999998 -35.296378999999995 24.175278
232.225288 -24.230526 24.237724
225.9226 -40.546757 16.514191
238.542328 -40.546757 30.564842
248.056433 -24.230526 36.249866
257.841076 -29.79215 40.279270000000004
247.592941 -35.296378999999995 36.156479
268.643262 -35.296378999999995 42.660999
268.80568800000003 -24.230526 42.771179
257.600409 -40.546757 39.868797
290.451661 -3.25815 40.979411999999996
301.051554 -8.3334 39.3368
290.926498 -13.512787 42.322769
280.0 -8.3334 42.648422
318.962692 -8.3334 30.157010999999997
311.179346 -13.512787 35.869846
309.82437500000003 -3.25815 34.731297
301.752748 -18.807949 40.130989
320.260475 -18.807949 30.765881
280.0 -18.807949 43.509457
324.60527 -3.25815 23.222363
330.82295999999997 -8.3334 16.293846
326.631748 -13.512787 23.983639
335.101585 -8.3334 0.0
335.020756 -13.512787 8.404834
332.629726 -3.25815 8.138052
332.51577399999996 -18.807949 16.622822
336.936905 -18.807949 0.0
332.629726 -3.25815 -8.138052
330.82295999999997 -8.3334 -16.293846
335.020756 -13.512787 -8.404834
318.962692 -8.3334 -30.157010999999997
326.631748 -13.512787 -23.983639
324.60527 -3.25815 -23.222363
332.51577399999996 -18.807949 -16.622822
320.260475 -18.807949 -30.765881
309.82437500000003 -3.25815 -34.731297
301.051554 -8.3334 -39.3368
311.179346 -13.512787 -35.869846
280.0 -8.3334 -42.648422
290.926498 -13.512787 -42.322769
290.451661 -3.25815 -40.979411999999996
301.752748 -18.807949 -40.130989
280.0 -18.807949 -43.509457
269.54834 -3.25815 -40.979408
258.948448 -8.3334 -39.336784
269.073503 -13.512787 -42.322753999999996
241.037308 -8.3334 -30.156990000000004
248.820654 -13.512787 -35.869816
250.175625 -3.25815 -34.731285
258.247252 -18.807949 -40.130959000000004
239.73952500000001 -18.807949 -30.765839
235.39472999999998 -3.25815 -23.222353
229.17704 -8.3334 -16.293833
233.368252 -13.512787 -23.983608
224.898415 -8.3334 0.0
224.979244 -13.512787 -8.404823
227.370274 -3.25815 -8.138048
227.484226 -18.807949 -16.622795
223.063095 -18.807949 0.0
227.370274 -3.25815 8.138048
229.17704 -8.3334 16.293833
224.979244 -13.512787 8.404823
241.037308 -8.3334 30.156990000000004
233.368252 -13.512787 23.983608
235.39472999999998 -3.25815 23.222353
227.484226 -18.807949 16.622795
239.73952500000001 -18.807949 30.765839
250.175625 -3.25815 34.731285
258.948448 -8.3334 39.336784
248.820654 -13.512787 35.869816
269.073503 -13.512787 42.322753999999996
269.54834 -3.25815 40.979408
258.247252 -18.807949 40.130959000000004
280.0 18.356945 33.265297
287.54529 21.28566 30.339803999999997
295.939049 18.356945 30.682274
288.678969 14.931023000000001 34.752415
293.71324400000003 23.787193 26.451069
280.0 23.787193 28.677883
305.380791 23.787193 20.278357999999997
301.530893 21.28566 25.713923
304.765905 14.931023000000001 29.453745
309.500357 18.356945 23.522154
298.070564 10.937869000000001 34.5453
289.681494 6.496167 38.405021999999995
280.0 10.937869000000001 37.453545
313.44541200000003 10.937869000000001 26.483683000000003
307.626661 6.496167 32.549431
299.832449 1.7246 37.503654
316.70635200000004 1.7246 28.751654
280.0 1.7246 40.660961
312.20156099999997 21.28566 17.193096
318.48028899999997 18.356945 12.709035
317.039833 14.931023000000001 19.693649
313.106735 23.787193 10.95641
315.89389800000004 23.787193 0.0
317.994606 21.28566 6.025156
323.70327399999996 14.931023000000001 6.90145
321.71983 18.356945 -0.0
323.626221 10.937869000000001 14.309148
321.318375 6.496167 21.763506
327.298981 10.937869000000001 -0.0
328.751522 6.496167 7.626810000000001
327.879791 1.7246 15.534531
331.910645 1.7246 0.0
317.994606 21.28566 -6.025156
318.48028899999997 18.356945 -12.709035
323.70327399999996 14.931023000000001 -6.90145
313.106735 23.787193 -10.95641
305.380793 23.787193 -20.278357999999997
312.20156099999997 21.28566 -17.193096
317.039833 14.931023000000001 -19.693649
309.500357 18.356945 -23.522154
323.626221 10.937869000000001 -14.309149
328.751522 6.496167 -7.626810000000001
313.44541200000003 10.937869000000001 -26.483683000000003
321.318375 6.496167 -21.763506
327.879791 1.7246 -15.534531
316.70635200000004 1.7246 -28.751654
301.530893 21.28566 -25.713923
295.939049 18.356945 -30.682274
304.765905 14.931023000000001 -29.453745
293.71324400000003 23.787193 -26.451069
280.0 23.787193 -28.677883
287.54529 21.28566 -30.339803999999997
288.678969 14.931023000000001 -34.752415
280.0 18.356945 -33.265297
298.070564 10.937869000000001 -34.5453
307.626661 6.496167 -32.549431
280.0 10.937869000000001 -37.453545
289.681494 6.496167 -38.405021999999995
299.832449 1.7246 -37.503654
280.0 1.7246 -40.660961
272.45471 21.28566 -30.339803999999997
264.060951 18.356945 -30.682274
271.32103 14.931023000000001 -34.752415
266.28675599999997 23.787193 -26.451069
254.619209 23.787193 -20.278357999999997
258.469107 21.28566 -25.713923
255.234095 14.931023000000001 -29.453745
250.499643 18.356945 -23.522154
261.929436 10.937869000000001 -34.5453
270.318506 6.496167 -38.405021999999995
246.554588 10.937869000000001 -26.483683000000003
252.373339 6.496167 -32.549427
260.167551 1.7246 -37.503654
243.293648 1.7246 -28.75165
247.798439 21.28566 -17.193096
241.519711 18.356945 -12.709035
242.960167 14.931023000000001 -19.693649
246.89326499999999 23.787193 -10.95641
244.106102 23.787193 0.0
242.005394 21.28566 -6.025156
236.296726 14.931023000000001 -6.90145
238.28017 18.356945 0.0
236.373779 10.937869000000001 -14.309148
238.681625 6.496167 -21.763504
232.701019 10.937869000000001 0.0
231.248478 6.496167 -7.626810000000001
232.120209 1.7246 -15.534528
228.089355 1.7246 0.0
242.005394 21.28566 6.025156
241.519711 18.356945 12.709035
236.296726 14.931023000000001 6.90145
246.89326499999999 23.787193 10.95641
254.61920700000002 23.787193 20.278357999999997
247.798439 21.28566 17.193096
242.960167 14.931023000000001 19.693649
250.499643 18.356945 23.522154
236.373779 10.937869000000001 14.309149
231.248478 6.496167 7.626810000000001
246.554588 10.937869000000001 26.483683000000003
238.681625 6.496167 21.763504
232.120209 1.7246 15.534528
243.293648 1.7246 28.75165
258.469107 21.28566 25.713923
264.060951 18.356945 30.682274
255.234095 14.931023000000001 29.453745
266.28675599999997 23.787193 26.451069
272.45471 21.28566 30.339803999999997
271.32103 14.931023000000001 34.752415
261.929436 10.937869000000001 34.5453
252.373339 6.496167 32.549427
270.318506 6.496167 38.405021999999995
260.167551 1.7246 37.503654
283.43976 36.806422999999995 2.7482729999999997
284.473392 36.422115000000005 5.891754
282.05117 36.422115000000005 6.693364
280.0 36.806422999999995 3.886635
284.381708 35.988304 8.451794999999999
287.818311 36.036568 6.246608999999999
280.0 36.036568 8.834005
284.864547 36.806422999999995 0.0
288.377477 36.422115000000005 1.638829
287.37417 36.422115000000005 3.574118
290.57835 35.988304 3.500863
291.056734 36.036568 0.0
283.43976 36.806422999999995 -2.7482729999999997
287.37417 36.422115000000005 -3.574118
288.377477 36.422115000000005 -1.638829
290.57835 35.988304 -3.500863
287.818311 36.036568 -6.246608999999999
280.0 36.806422999999995 -3.886635
282.05117 36.422115000000005 -6.693364
284.473392 36.422115000000005 -5.891754
284.381708 35.988304 -8.451794999999999
280.0 36.036568 -8.834005
276.56024 36.806422999999995 -2.7482729999999997
275.526608 36.422115000000005 -5.891754
277.94883 36.422115000000005 -6.693364
275.618292 35.988304 -8.451794999999999
272.181689 36.036568 -6.246608999999999
275.135453 36.806422999999995 0.0
271.622523 36.422115000000005 -1.638829
272.62583 36.422115000000005 -3.574118
269.42165 35.988304 -3.500863
268.943266 36.036568 0.0
276.56024 36.806422999999995 2.7482729999999997
272.62583 36.422115000000005 3.574118
271.622523 36.422115000000005 1.638829
269.42165 35.988304 3.500863
272.181689 36.036568 6.246608999999999
277.94883 36.422115000000005 6.693364
275.526608 36.422115000000005 5.891754
275.618292 35.988304 8.451794999999999
287.35862199999997 34.0056 14.193874
297.765266 34.0056 5.879311
297.765266 34.0056 -5.879311
287.35862199999997 34.0056 -14.193875
272.64137800000003 34.0056 -14.193874
262.234734 34.0056 -5.879311
262.234734 34.0056 5.879311
272.64137800000003 34.0056 14.193875
290.928017 29.395264 21.078735
306.382591 29.395264 8.731112
306.382591 29.395264 -8.731112
290.928017 29.395264 -21.078735
269.071983 29.395264 -21.078735
253.617409 29.395264 -8.731112
253.617409 29.395264 8.731112
269.071983 29.395264 21.078735
302.216045 -63.903351 33.801628
333.63427 -63.903351 14.001085
333.63427 -63.903351 -14.001085
302.216045 -63.903351 -33.801628
257.783955 -63.903351 -33.801628
226.36573 -63.903351 -14.001085
226.36573 -63.903351 14.001085
257.783955 -63.903351 33.801628
301.072071 -71.860947 29.077614
330.87246700000003 -71.860947 12.044334
330.87246700000003 -71.860947 -12.044334
301.072071 -71.860947 -29.077616
258.927929 -71.860947 -29.077614
229.127533 -71.860947 -12.044334
229.127533 -71.860947 12.044334
258.927929 -71.860947 29.077616
298.97538 -77.901825 23.592525
325.810604 -77.901825 9.772338000000001
325.810604 -77.901825 -9.772338000000001
298.97538 -77.901825 -23.592525
261.02462 -77.901825 -23.592525
234.189396 -77.901825 -9.772338000000001
234.189396 -77.901825 9.772338000000001
261.02462 -77.901825 23.592525
296.119013 -81.19787600000001 18.922276
318.914711 -81.19787600000001 7.837860000000001
318.914711 -81.19787600000001 -7.837860000000001
296.119013 -81.19787600000001 -18.922276
263.880987 -81.19787600000001 -18.922276
241.085289 -81.19787600000001 -7.837860000000001
241.085289 -81.19787600000001 7.837860000000001
263.880987 -81.19787600000001 18.922276
289.922902 -82.08017 11.623377
303.955986 -82.08017 4.814559
303.955986 -82.08017 -4.814559
289.922902 -82.08017 -11.623377
270.077098 -82.08017 -11.623377
256.044014 -82.08017 -4.814559
256.044014 -82.08017 4.814559
270.077098 -82.08017 11.623377
302.52250100000003 -53.103638000000004 37.812706
334.374146 -53.103638000000004 15.662526999999999
334.374146 -53.103638000000004 -15.662526999999999
302.52250100000003 -53.103638000000004 -37.812702
257.47749899999997 -53.103638000000004 -37.812702
225.625854 -53.103638000000004 -15.662526000000002
225.625854 -53.103638000000004 15.662526999999999
257.47749899999997 -53.103638000000004 37.812702
302.297688 -35.296378999999995 40.157585
333.831375 -35.296378999999995 16.633831
333.831375 -35.296378999999995 -16.633829000000002
302.297688 -35.296378999999995 -40.157585
257.702312 -35.296378999999995 -40.157562
226.168625 -35.296378999999995 -16.633808
226.168625 -35.296378999999995 16.633808
257.702312 -35.296378999999995 40.157562
301.45295899999996 -13.512787 39.839195000000004
331.792027 -13.512787 16.501953
331.79203 -13.512787 -16.501953
301.45295699999997 -13.512787 -39.839195000000004
258.54704100000004 -13.512787 -39.839172
228.20797299999998 -13.512787 -16.501929999999998
228.20797 -13.512787 16.501929999999998
258.54704300000003 -13.512787 39.839172
294.814337 21.28566 28.559414
299.008533 6.496167 36.151348
315.764999 21.28566 11.829718
325.890678 6.496167 14.974389000000002
315.764999 21.28566 -11.829718
325.890678 6.496167 -14.974389000000002
294.814337 21.28566 -28.559414
299.008533 6.496167 -36.151348
265.185663 21.28566 -28.559414
260.991467 6.496167 -36.151344
244.235001 21.28566 -11.829718
234.109322 6.496167 -14.974388000000001
244.235001 21.28566 11.829718
234.109322 6.496167 14.974388000000001
265.185664 21.28566 28.559414
260.991467 6.496167 36.151344
283.64748399999996 36.289448 7.035568
288.805781 36.289448 2.914239
288.80578 36.289448 -2.914239
283.64748399999996 36.289448 -7.0355669999999995
276.35251600000004 36.289448 -7.035568
271.194219 36.289448 -2.914239
271.19422 36.289448 2.914239
276.35251600000004 36.289448 7.0355669999999995
285.357639 35.460938 10.334244
293.604925 34.008015 10.869907000000001
289.257824 32.001083 17.857172
280.0 34.008015 15.372334
292.934456 35.460938 4.280601
299.240253 34.008015 0.0
302.350367 32.001083 7.396696
292.934456 35.460938 -4.2806
293.604925 34.008015 -10.869907000000001
302.350367 32.001083 -7.396696
285.357639 35.460938 -10.334244
280.0 34.008015 -15.372334
289.257824 32.001083 -17.857172
274.642361 35.460938 -10.334244
266.395075 34.008015 -10.869907000000001
270.742176 32.001083 -17.857172
267.065544 35.460938 -4.280601
260.759747 34.008015 -0.0
257.649633 32.001083 -7.396696
267.065544 35.460938 4.2806
266.395075 34.008015 10.869907000000001
257.649633 32.001083 7.396696
274.642361 35.460938 10.334244
270.742176 32.001083 17.857172
300.225826 29.395264 16.159729000000002
292.68296599999996 25.931572 24.463791
280.0 29.395264 22.853271
308.603664 29.395264 -0.0
310.619425 25.931572 10.133251
300.225826 29.395264 -16.159729000000002
310.619425 25.931572 -10.133251
280.0 29.395264 -22.853271
292.68296599999996 25.931572 -24.463791
259.774174 29.395264 -16.159729000000002
267.31703400000004 25.931572 -24.463791
251.396336 29.395264 0.0
249.380575 25.931572 -10.133251
259.774174 29.395264 16.159729000000002
249.380575 25.931572 10.133251
267.31703400000004 25.931572 24.463791
302.446121 -59.048331999999995 35.823395
321.117958 -63.903351 25.913529999999998
301.775009 -68.076385 31.610478999999998
280.0 -63.903355000000005 36.647282000000004
334.189743 -59.048331999999995 14.838531
338.149567 -63.903351 0.0
332.569504 -68.076385 13.093481
334.189743 -59.048331999999995 -14.838531
321.117958 -63.903351 -25.913529999999998
332.569504 -68.076385 -13.093481
302.446121 -59.048331999999995 -35.823395
280.0 -63.903351 -36.647282000000004
301.775009 -68.076385 -31.610478999999998
257.553879 -59.048331999999995 -35.823395
238.882042 -63.903351 -25.913529999999998
258.224991 -68.076385 -31.610478999999998
225.81025699999998 -59.048331999999995 -14.838531
221.850433 -63.903351 -0.0
227.430496 -68.076385 -13.093481
225.81025699999998 -59.048331999999995 14.838531
238.882042 -63.903351 25.913529999999998
227.430496 -68.076385 13.093481
257.553879 -59.048331999999995 35.823395
258.224991 -68.076385 31.610478999999998
319.00066400000003 -71.860947 22.291930999999998
300.127487 -75.180328 26.339046000000003
280.0 -71.860947 31.525576
335.155251 -71.860947 0.0
328.592049 -75.180328 10.909983
319.00066400000003 -71.860947 -22.291930999999998
328.592049 -75.180328 -10.909983
280.0 -71.860947 -31.525576
300.127487 -75.180328 -26.339046000000003
240.999336 -71.860947 -22.291930999999998
259.872513 -75.180328 -26.339046000000003
224.844749 -71.860947 -0.0
231.407951 -75.180328 -10.909983
240.999336 -71.860947 22.291930999999998
231.407951 -75.180328 10.909983
259.872513 -75.180328 26.339046000000003
315.120056 -77.901825 18.086868
297.661812 -79.927132 21.097967
280.0 -77.901825 25.578707
329.667244 -77.901825 0.0
322.639362 -79.927132 8.73906
315.120056 -77.901825 -18.086868
322.639362 -79.927132 -8.73906
280.0 -77.901825 -25.578707
297.661812 -79.927132 -21.097967
244.879944 -77.901825 -18.086868
262.338188 -79.927132 -21.097967
230.332756 -77.901825 0.0
237.360638 -79.927132 -8.73906
244.879944 -77.901825 18.086868
237.360638 -79.927132 8.73906
262.338188 -79.927132 21.097967
309.792828 -81.19787600000001 14.486794
293.584215 -81.860809 15.91213
280.0 -81.19787600000001 20.487427
322.13338899999997 -81.19787600000001 0.0
312.795166 -81.860809 6.591017999999999
309.792828 -81.19787600000001 -14.486794
312.795166 -81.860809 -6.591017999999999
280.0 -81.19787600000001 -20.487427
293.584215 -81.860809 -15.91213
250.207172 -81.19787600000001 -14.486794
266.415785 -81.860809 -15.91213
237.866611 -81.19787600000001 -0.0
247.204834 -81.860809 -6.591017999999999
250.207172 -81.19787600000001 14.486794
247.204834 -81.860809 6.591017999999999
266.415785 -81.860809 15.91213
295.75524 -82.100922 7.644392999999999
280.0 -82.100922 10.810808
302.281258 -82.100922 -0.0
295.755241 -82.100922 -7.644392999999999
280.0 -82.100922 -10.810808
264.24476 -82.100922 -7.644392999999999
257.718742 -82.100922 0.0
264.244759 -82.100922 7.644392999999999
321.685158 -53.103638000000004 28.988564
280.0 -53.103638000000004 40.996037
302.469154 -45.34684 39.385612
338.951733 -53.103638000000004 0.0
334.245346 -45.34684 16.314053
321.685158 -53.103638000000004 -28.988564
334.245346 -45.34684 -16.314053
280.0 -53.103638000000004 -40.996037
302.469154 -45.34684 -39.385616
238.314842 -53.103638000000004 -28.988559999999996
257.530846 -45.34684 -39.385605
221.048267 -53.103638000000004 0.0
225.75465400000002 -45.34684 -16.314045
238.314842 -53.103638000000004 28.988561999999998
225.75465400000002 -45.34684 16.314045
257.530846 -45.34684 39.385605
301.978783 -24.230526 40.261314
321.26906199999996 -35.296378999999995 30.786259
280.0 -35.296378999999995 43.538307
333.061462 -24.230526 16.676807
338.363266 -35.296378999999995 -0.0
333.061462 -24.230526 -16.676807
321.26906199999996 -35.296378999999995 -30.786259
301.978783 -24.230526 -40.261314
280.0 -35.296378999999995 -43.538307
258.021217 -24.230526 -40.261284
238.730938 -35.296378999999995 -30.786226
226.938538 -24.230526 -16.676776999999998
221.636734 -35.296378999999995 -0.0
226.938538 -24.230526 16.676776999999998
238.730938 -35.296378999999995 30.786226
258.021217 -24.230526 40.261284
300.520672 -3.25815 38.574661
319.70562 -13.512787 30.542175
280.0 -13.512787 43.193108
329.541302 -3.25815 15.978155
336.15222900000003 -13.512787 0.0
329.541302 -3.25815 -15.978155
319.70562 -13.512787 -30.542175
300.52067 -3.25815 -38.574661
280.0 -13.512787 -43.193108
259.47933 -3.25815 -38.574653999999995
240.29438 -13.512787 -30.542140999999997
230.458698 -3.25815 -15.978148000000001
223.847771 -13.512787 -0.0
230.458698 -3.25815 15.978148000000001
240.29438 -13.512787 30.542143
259.47933 -3.25815 38.574653999999995
280.0 21.28566 30.963721999999997
307.418716 21.28566 21.894695000000002
297.040188 14.931023000000001 32.713089000000004
315.181427 6.496167 27.71493
280.0 6.496167 39.194801
318.77595099999996 21.28566 0.0
321.138672 14.931023000000001 13.550223999999998
329.754074 6.496167 0.0
307.418716 21.28566 -21.894695000000002
321.13867600000003 14.931023000000001 -13.550223999999998
315.181427 6.496167 -27.71493
280.0 21.28566 -30.963721999999997
297.040188 14.931023000000001 -32.713089000000004
280.0 6.496167 -39.194801
252.581284 21.28566 -21.894695000000002
262.959812 14.931023000000001 -32.713089000000004
244.81857300000001 6.496167 -27.714928000000004
241.224049 21.28566 0.0
238.86132800000001 14.931023000000001 -13.550223999999998
230.245926 6.496167 0.0
252.581284 21.28566 21.894695000000002
238.861324 14.931023000000001 13.550223999999998
244.81857300000001 6.496167 27.714928000000004
262.959812 14.931023000000001 32.713089000000004
285.744548 36.473999 4.589734
280.0 36.473999 6.49084
288.12399800000003 36.473999 0.0
285.744548 36.473999 -4.589734
280.0 36.473999 -6.49084
274.255452 36.473999 -4.589734
271.87600199999997 36.473999 -0.0
274.255452 36.473999 4.589734
280.0 37.103241 0.0
280.0 35.485069 11.039583
289.770308 35.485069 7.806192
293.817274 35.485069 0.0
289.770309 35.485069 -7.806192
280.0 35.485069 -11.039583
270.229692 35.485069 -7.806192
266.182726 35.485069 0.0
270.229691 35.485069 7.806192
280.0 32.001083 19.360498
297.13459 32.001083 13.689962
304.231972 32.001083 0.0
297.13459 32.001083 -13.689962
280.0 32.001083 -19.360498
262.86541 32.001083 -13.689962
255.76802800000002 32.001083 -0.0
262.86541 32.001083 13.689962
280.0 25.931572 26.523304
303.47393 25.931572 18.754837
313.197189 25.931572 0.0
303.47393 25.931572 -18.754837
280.0 25.931572 -26.523304
256.52607 25.931572 -18.754837
246.802811 25.931572 0.0
256.52607 25.931572 18.754837
280.0 -59.048331999999995 38.839252
321.543793 -59.048331999999995 27.463493
338.751808 -59.048331999999995 0.0
321.543793 -59.048331999999995 -27.463490999999998
280.0 -59.048331999999995 -38.839252
238.456207 -59.048331999999995 -27.463493
221.24819200000002 -59.048331999999995 -0.0
238.456207 -59.048331999999995 27.463490999999998
280.0 -68.076385 34.271671000000005
320.301674 -68.076378 24.233715
336.995155 -68.076378 0.0
320.301674 -68.076378 -24.233715
280.0 -68.076378 -34.271671000000005
239.698326 -68.076378 -24.233715
223.004845 -68.076378 -0.0
239.698326 -68.076378 24.233715
280.0 -75.180328 28.55645
317.252407 -75.180328 20.192446
332.682854 -75.180328 -0.0
317.252407 -75.180328 -20.192448000000002
280.0 -75.180328 -28.55645
242.747593 -75.180328 -20.192446
227.31714599999998 -75.180328 0.0
242.747593 -75.180328 20.192448000000002
280.0 -79.927132 22.874142000000003
312.688869 -79.927132 16.174454
326.229019 -79.927132 0.0
312.688873 -79.927132 -16.174452
280.0 -79.927132 -22.874142000000003
247.311131 -79.927132 -16.174454
233.770981 -79.927132 0.0
247.311127 -79.927132 16.174452
280.0 -81.860809 16.973164
304.736004 -81.860809 12.001835
314.98196 -81.860809 0.0
304.736004 -81.860809 -12.001835
280.0 -81.860809 -16.973164
255.263996 -81.860809 -12.001835
245.01803999999998 -81.860809 0.0
255.263996 -81.860809 12.001835
280.0 -82.127602 0.0
280.0 -45.34684 42.701363
321.586418 -45.34684 30.194418
338.812092 -45.34684 0.0
321.586418 -45.34684 -30.194418
280.0 -45.34684 -42.701363
238.413582 -45.34684 -30.194407
221.187908 -45.34684 0.0
238.413582 -45.34684 30.194407
280.0 -24.230526 43.650749
320.678825 -24.230526 30.865790999999998
337.528534 -24.230526 0.0
320.678825 -24.230526 -30.865793
280.0 -24.230526 -43.650749
239.32117499999998 -24.230526 -30.865747
222.47146600000002 -24.230526 0.0
239.32117499999998 -24.230526 30.865748999999997
280.0 -3.25815 41.822132
317.980125 -3.25815 29.572725
333.712032 -3.25815 0.0
317.980125 -3.25815 -29.572725
280.0 -3.25815 -41.822132
242.019875 -3.25815 -29.572715999999996
226.287968 -3.25815 0.0
242.019875 -3.25815 29.572715999999996
280.0 14.931023000000001 35.467075
311.538372 14.931023000000001 25.079048
324.602013 14.931023000000001 -0.0
311.53837 14.931023000000001 -25.079048
280.0 14.931023000000001 -35.467075
248.46162800000002 14.931023000000001 -25.079048
235.397987 14.931023000000001 0.0
248.46163 14.931023000000001 25.079048
297.90083300000003 6.844633999999999 40.18047
297.5263 6.851433 39.529167
297.618067 4.973267 39.830334
297.99260100000004 4.966467 40.481636
298.482775 7.662675 39.965324
297.86424999999997 7.673875 38.889725
298.115326 4.21315 39.396202
298.73385 4.20195 40.471802000000004
299.530951 8.022475 39.399223
298.80762500000003 8.035525 38.14135
299.26210000000003 3.2788 38.772822999999995
299.98542399999997 3.26575 40.030701
301.167875 8.203625 38.49015
300.364325 8.21815 37.092751
300.93825 2.51595 37.832474
301.7418 2.501425 39.229874
303.54314999999997 8.096375 37.153652
302.698299 8.11165 35.684475
303.30832499999997 2.050875 36.470698999999996
304.15317500000003 2.0356 37.939877
308.4261 7.796925 34.332951
307.5721 7.81235 32.8479
308.18874900000003 1.68595 33.642651
309.042749 1.670525 35.127701
313.222126 7.430275 31.552675
312.379349 7.445525 30.087124
312.98789999999997 1.39965 30.871426
313.830673 1.3844 32.336975
315.466049 6.945975 30.266899
314.666473 6.960425 28.87645
315.22592499999996 1.4023 29.597475
316.02550099999996 1.38785 30.987925
317.181202 6.366275 29.269325
316.461449 6.379275 28.0177
316.945351 1.57165 28.641375
317.6651 1.55865 29.893
318.152451 5.92605 28.656799
317.475777 5.94135 27.621975
317.88439900000003 1.8819 28.1486
318.56107299999996 1.8666 29.183424
318.36747 5.158233999999999 28.392433
317.91317000000004 5.170534 27.791601
318.158436 2.734167 28.107668
318.612736 2.721867 28.7085
262.09916699999997 6.844633999999999 40.18047
262.4737 6.851433 39.529167
262.381933 4.973267 39.830334
262.00739899999996 4.966467 40.481636
261.517225 7.662675 39.965324
262.13575000000003 7.673875 38.889725
261.884674 4.21315 39.396202
261.26615 4.20195 40.471802000000004
260.469049 8.022475 39.399223
261.19237499999997 8.035525 38.14135
260.73789999999997 3.2788 38.772822999999995
260.01457600000003 3.26575 40.030701
258.832125 8.203625 38.49015
259.635675 8.21815 37.092751
259.06175 2.51595 37.832474
258.2582 2.501425 39.229874
256.45685000000003 8.096375 37.153652
257.301701 8.11165 35.684475
256.69167500000003 2.050875 36.470698999999996
255.846825 2.0356 37.939877
251.57389999999998 7.796925 34.332951
252.4279 7.81235 32.8479
251.811251 1.68595 33.642651
250.95725099999999 1.670525 35.127701
246.777874 7.430275 31.552675
247.620651 7.445525 30.087124
247.0121 1.39965 30.871426
246.169327 1.3844 32.336975
244.533951 6.945975 30.266899
245.333527 6.960425 28.87645
244.774075 1.4023 29.597475
243.974499 1.38785 30.987925
242.81879800000002 6.366275 29.269325
243.53855099999998 6.379275 28.0177
243.05464899999998 1.57165 28.641375
242.3349 1.55865 29.893
241.84754900000001 5.92605 28.656799
242.524223 5.94135 27.621975
242.115601 1.8819 28.1486
241.438927 1.8666 29.183424
241.63253 5.158233999999999 28.392433
242.08683 5.170534 27.791601
241.841564 2.734167 28.107668
241.38726400000002 2.721867 28.7085
297.71110899999996 7.194617 39.790684000000006
298.090677 7.394877 40.143947999999995
297.97551 5.681075 40.46545
297.507341 5.689575 39.651325
297.561512 7.404477 39.223746999999996
297.82581700000003 4.846908999999999 40.167145
297.716049 4.661129 39.651534999999996
298.24521300000004 4.651529 40.571735
298.121357 8.790438 39.245987
298.99143200000003 7.815913 39.698963
298.752331 5.672530999999999 40.542381
297.824543 5.689331 38.928982
298.318344 7.828075 38.528469
298.497969 3.59935 40.005699
298.676981 3.7216120000000004 39.093555
299.350069 3.70945 40.26405
299.046444 9.370225 38.589092
300.21765700000003 8.184375 39.013744
299.948244 5.488805999999999 40.052757
298.863256 5.508381 38.165943
299.450237 8.198219 37.679176
299.728157 2.235137 39.536304
299.979563 2.878862 38.372849
300.746981 2.8650189999999998 39.70742
300.616301 9.699219 37.598372999999995
302.302681 8.150775 37.859703
301.66204500000003 5.286112 39.217506
300.456718 5.3079 37.121407
301.472731 8.1658 36.416405
301.477188 1.1459190000000001 38.707962
302.070419 2.227481 37.186745
302.90037 2.212456 38.630035
302.968212 9.619206 36.222507
305.410538 7.993925 36.076553000000004
304.05938100000003 5.062169 37.914059
302.792107 5.085082 35.710293
304.558825 8.0093 34.59547
303.883251 0.528044 37.401844
305.173819 1.8993060000000002 35.388088
306.025532 1.883931 36.869171
307.844925 9.336244 33.391739
311.419931 7.583125 32.599457
308.947937 4.729863 35.101589000000004
307.666937 4.753 32.874012
310.568737 7.5985190000000005 31.119282000000002
308.769899 0.146644 34.583861999999996
311.183361 1.49225 31.911419
312.034554 1.476856 33.391594
312.648594 8.949375 30.623825
314.386295 7.248013 30.879519000000002
313.737099 4.403519 32.311211
312.472939 4.426394 30.112888
313.559929 7.262962 29.442493
313.561417 -0.11943699999999999 31.800276
314.152157 1.3792870000000002 30.20575
314.978519 1.3643370000000001 31.642775
314.930882 8.298275 29.397185999999998
316.413612 6.620088000000001 29.726332
315.941189 4.207757 30.969255
314.741825 4.229431 28.883581
315.64997900000003 6.633875 28.398388
315.770058 -0.038912 30.478725
316.17004399999996 1.466987 29.068663
316.933678 1.4532 30.396606
316.709312 7.485763 28.499132
317.762814 6.147330999999999 28.908580999999998
317.59412399999997 4.048131 29.88253
316.5145 4.0676309999999996 28.005093
317.077759 6.160481 27.752769
317.435165 0.274325 29.434642999999998
317.52556200000004 1.711538 28.329918
318.210617 1.698388 29.485731
317.705608 6.860675 28.028118
318.353031 5.622871 28.492058
318.53228 3.9803879999999996 29.15843
317.517269 4.003337 27.606194
317.729561 5.638996 27.632519
318.318542 0.7715 28.818056
318.07698400000004 2.187767 28.080242
318.700451 2.171642 28.939781
318.092236 5.4406669999999995 28.068159
318.551125 3.9971 28.611984000000003
317.983253 4.012475 27.860943
318.398819 2.3952080000000002 28.463241999999997
261.909323 7.394877 40.143947999999995
262.28889100000004 7.194617 39.790684000000006
262.02449 5.681075 40.46545
262.438488 7.404477 39.223746999999996
262.492659 5.689575 39.651325
262.283951 4.661129 39.651534999999996
262.17418299999997 4.846908999999999 40.167145
261.75478699999996 4.651529 40.571735
261.00856799999997 7.815913 39.698963
261.878643 8.790438 39.245987
261.247669 5.672530999999999 40.542381
261.681656 7.828075 38.528469
262.175457 5.689331 38.928982
261.323019 3.7216120000000004 39.093555
261.502031 3.59935 40.005699
260.649931 3.70945 40.26405
259.78234299999997 8.184375 39.013744
260.953556 9.370225 38.589092
260.051756 5.488805999999999 40.052757
260.549763 8.198219 37.679176
261.136744 5.508381 38.165943
260.020437 2.878862 38.372849
260.271843 2.235137 39.536304
259.253019 2.8650189999999998 39.70742
257.697319 8.150775 37.859703
259.383699 9.699219 37.598372999999995
258.33795499999997 5.286112 39.217506
258.527269 8.1658 36.416405
259.543282 5.3079 37.121407
257.929581 2.227481 37.186745
258.522812 1.1459190000000001 38.707962
257.09963 2.212456 38.630035
254.589462 7.993925 36.076553000000004
257.031788 9.619206 36.222507
255.940619 5.062169 37.914059
255.441175 8.0093 34.59547
257.207893 5.085082 35.710293
254.826181 1.8993060000000002 35.388088
256.116749 0.528044 37.401844
253.974468 1.883931 36.869171
248.580069 7.583125 32.599457
252.155075 9.336244 33.391739
251.052063 4.729863 35.101589000000004
249.431263 7.5985190000000005 31.119282000000002
252.33306299999998 4.753 32.874012
248.816639 1.49225 31.911419
251.230101 0.146644 34.583861999999996
247.965446 1.476856 33.391594
245.61370499999998 7.248013 30.879519000000002
247.351406 8.949375 30.623825
246.262901 4.403519 32.311211
246.440071 7.262962 29.442493
247.527061 4.426394 30.112888
245.847843 1.3792870000000002 30.20575
246.438583 -0.11943699999999999 31.800276
245.021481 1.3643370000000001 31.642775
243.586388 6.620088000000001 29.726332
245.069118 8.298275 29.397185999999998
244.058811 4.207757 30.969255
244.350021 6.633875 28.398388
245.258175 4.229431 28.883581
243.829956 1.466987 29.068663
244.229942 -0.038912 30.478725
243.066322 1.4532 30.396606
242.237186 6.147330999999999 28.908580999999998
243.290688 7.485763 28.499132
242.405876 4.048131 29.88253
242.92224099999999 6.160481 27.752769
243.4855 4.0676309999999996 28.005093
242.474438 1.711538 28.329918
242.564835 0.274325 29.434642999999998
241.789383 1.698388 29.485731
241.646969 5.622871 28.492058
242.294392 6.860675 28.028118
241.46771999999999 3.9803879999999996 29.15843
242.270439 5.638996 27.632519
242.482731 4.003337 27.606194
241.923016 2.187767 28.080242
241.681458 0.7715 28.818056
241.299549 2.171642 28.939781
241.907764 5.4406669999999995 28.068159
241.448875 3.9971 28.611984000000003
242.016747 4.012475 27.860943
241.601181 2.3952080000000002 28.463241999999997
297.745932 5.741231 40.045151000000004
298.267853 5.7331449999999995 40.634254
297.808754 8.286738 39.526222
297.497517 5.74712 39.294659
298.03482099999997 4.289102 40.149078
299.341581 5.568122 40.308871999999994
298.56266800000003 9.040128999999999 38.937702
298.331951 5.586366 38.553131
299.100624 2.880435 39.785332000000004
300.68438000000003 5.404749 39.710236
299.69141 9.637623 38.157028000000004
299.533249 5.425514 37.708382
300.48539900000003 1.6585889999999999 39.197540000000004
302.810593 5.162164 38.607727000000004
301.73670400000003 9.658563000000001 36.943436
301.565668 5.184702 36.442787
302.633236 0.751084 38.098938000000004
305.930973 4.9350830000000006 36.843132000000004
304.830921 9.529112 35.137856
304.653404 4.958146 34.62151
305.753414 0.364122 36.326782
311.94005200000004 4.526133 33.36557
310.840668 9.117398 31.661334999999998
310.66326100000003 4.5492230000000005 31.145308
311.762604 -0.042005 32.849540999999995
314.887878 4.31355 31.618961
313.82617600000003 8.715294 29.971634
313.648335 4.335975 29.463425
314.714512 -0.11021900000000001 31.11652
316.856712 4.110997 30.383358
315.909622 7.840903 28.904888
315.71126200000003 4.131678 28.391443
316.68971999999997 0.090572 29.910296999999996
318.152847 4.008236 29.472359
317.313469 7.177478999999999 28.200138
317.125263 4.027961 27.738640000000004
317.985176 0.504062 29.065863
318.681889 3.973653 28.888916
317.945332 6.345141 27.983862
317.775082 3.997072 27.637157000000002
318.451134 1.320571 28.635693
318.24317199999996 3.991688 28.253142999999998
262.254068 5.741231 40.045151000000004
261.732147 5.733146 40.634254
262.191246 8.286738 39.526222
262.502483 5.74712 39.294659
261.96517900000003 4.289102 40.149078
260.658419 5.568122 40.308871999999994
261.43733199999997 9.040128999999999 38.937702
261.668049 5.586366 38.553131
260.899376 2.880435 39.785332000000004
259.31561999999997 5.404749 39.710236
260.30859 9.637623 38.157028000000004
260.466751 5.425514 37.708382
259.51460099999997 1.6585889999999999 39.197540000000004
257.189407 5.162164 38.607731
258.26329599999997 9.658563000000001 36.943436
258.434332 5.184702 36.442787
257.366764 0.751084 38.098938000000004
254.069027 4.9350830000000006 36.843132000000004
255.169079 9.529112 35.137856
255.346596 4.958146 34.62151
254.24658599999998 0.364122 36.326782
248.059948 4.526133 33.36557
249.159332 9.117398 31.661334999999998
249.336739 4.5492230000000005 31.145308
248.237396 -0.042005 32.849540999999995
245.112122 4.31355 31.618961
246.173824 8.715294 29.971634
246.351665 4.335975 29.463425
245.285488 -0.11021900000000001 31.11652
243.14328799999998 4.110997 30.383358
244.090378 7.840903 28.904884000000003
244.288738 4.131679 28.391443
243.31028 0.090572 29.910296999999996
241.847153 4.008236 29.472359
242.686531 7.177478999999999 28.200138
242.87473699999998 4.027961 27.738640000000004
242.014824 0.504062 29.065863
241.318111 3.973653 28.888916
242.054668 6.345141 27.983862
242.224918 3.997072 27.637157000000002
241.548866 1.320571 28.635693
241.756828 3.991688 28.253142999999998
303.345501 -12.8719 39.577801
303.322001 -9.1822 39.5196
304.6814 -9.5012 38.9762
305.809799 -10.403 38.5369
306.512199 -11.7317 38.2775
306.666901 -13.2575 38.243
306.24739999999997 -14.7167 38.439301
305.326099 -15.8569 38.832401000000004
304.062401 -16.4809 39.3545
302.67470000000003 -16.4809 39.9151
301.402901 -15.8569 40.4175
300.4671 -14.7167 40.7747
300.028999 -13.2575 40.9249
300.164301 -11.7317 40.842201
300.849701 -10.403 40.540901
301.96659999999997 -9.5012 40.073101
303.65160000000003 -9.1664 40.335602
305.011101 -9.4854 39.792198
306.1395 -10.3872 39.352798
306.84180100000003 -11.7159 39.093498
306.996599 -13.2418 39.058899
306.57710099999997 -14.701 39.255199
305.6558 -15.8412 39.648399
304.392 -16.4652 40.170502
303.004299 -16.4652 40.731097999999996
301.732599 -15.8412 41.233501000000004
300.796801 -14.701 41.590697999999996
300.358601 -13.2418 41.740898
300.49399900000003 -11.7159 41.658198999999996
301.1793 -10.3872 41.356899
302.29630099999997 -9.4854 40.889
303.6752 -12.8561 40.393799
256.654499 -12.8719 39.577801
256.677999 -9.1822 39.5196
255.3186 -9.5012 38.9762
254.190201 -10.403 38.5369
253.487801 -11.7317 38.2775
253.333099 -13.2575 38.243
253.7526 -14.7167 38.439301
254.673901 -15.8569 38.832401000000004
255.937599 -16.4809 39.3545
257.32529999999997 -16.4809 39.9151
258.597099 -15.8569 40.4175
259.5329 -14.7167 40.7747
259.971001 -13.2575 40.9249
259.835699 -11.7317 40.842201
259.150299 -10.403 40.540901
258.03340000000003 -9.5012 40.073101
256.34839999999997 -9.1664 40.335602
254.988899 -9.4854 39.792198
253.8605 -10.3872 39.352798
253.158199 -11.7159 39.093498
253.003401 -13.2418 39.058899
253.422899 -14.701 39.255199
254.3442 -15.8412 39.648399
255.608 -16.4652 40.170502
256.995701 -16.4652 40.731097999999996
258.267401 -15.8412 41.233501000000004
259.203199 -14.701 41.590697999999996
259.641399 -13.2418 41.740898
259.50600099999997 -11.7159 41.658198999999996
258.8207 -10.3872 41.356899
257.70369900000003 -9.4854 40.889
256.3248 -12.8561 40.393799
335.57185400000003 -91.36715699999999 28.976583
331.62480500000004 -92.161591 29.132057
331.499611 -90.49533100000001 29.538079999999997
336.951107 -92.972099 28.100596999999997
335.16461200000003 -94.760048 27.210377
332.96718599999997 -93.723625 28.279490000000003
340.02707699999996 -93.468437 26.808994000000002
341.14079300000003 -95.042496 24.847382999999997
338.158356 -95.24311800000001 25.953304
342.997906 -92.565331 25.858349
346.05258200000003 -92.843361 23.427212
344.032204 -94.163528 23.922153
344.123314 -90.79184000000001 25.805523
347.022713 -89.450958 23.781797
347.147903 -91.11727900000001 23.375799
342.744102 -89.18690500000001 26.681509000000002
343.48299 -86.85257 25.703492999999998
345.680367 -87.88891600000001 24.634363
339.66815199999996 -88.690659 27.97315
337.506805 -86.570267 28.066553000000003
340.489265 -86.369591 26.960603999999996
336.697289 -89.593765 28.923797999999998
332.594955 -88.769348 29.486704
334.615356 -87.44923399999999 28.991787
326.579025 -89.736069 29.116478000000004
326.771461 -92.297493 28.492346
321.33279400000004 -92.111343 26.818890000000003
321.075874 -88.691399 27.652191
328.715542 -94.5597 27.257628999999998
332.093445 -96.15287 25.614182
328.414631 -97.231102 22.991253
323.904587 -95.104004 25.185509
336.429115 -96.852448 23.793636
