385.858934 -49.345093 46.369803999999995
381.91621 -58.978992000000005 45.294758
389.288355 -39.302925 55.9506
384.822752 -28.413055 57.243202000000004
381.91621 -29.316204 48.604813
385.858934 -38.950053999999994 47.529781
376.597206 -20.104395 58.229424
365.816328 -15.593703 58.764839
365.135282 -17.97543 49.870323
374.65380500000003 -21.965857999999997 49.42503
354.183672 -15.593703 58.764839
343.402794 -20.104395 58.229424
345.34619499999997 -21.965857999999997 49.42503
354.864718 -17.97543 49.870323
335.177248 -28.413055 57.243202000000004
330.711645 -39.302925 55.9506
334.141066 -38.950053999999994 47.529781
338.08379 -29.316204 48.604813
330.711645 -51.053219 54.55587
335.177248 -61.94313399999999 53.263275
338.08379 -58.978992000000005 45.294758
334.141066 -49.345093 46.369803999999995
343.402794 -70.251869 52.27705
354.183672 -74.762619 51.741627
354.864718 -70.319916 44.029202000000005
345.34619499999997 -66.329414 44.474514
364.335519 -65.202843 37.937022999999996
372.371641 -61.858245999999994 38.271832
370.155955 -57.659018999999994 33.616413
363.480931 -60.430824 33.389346999999994
378.503014 -55.697563 38.888538
381.83171300000004 -47.623001 39.696822999999995
377.843689 -46.032123999999996 34.571059999999996
375.078762 -52.723892000000006 34.022831
381.83171300000004 -38.910507 40.568946999999994
378.503014 -30.836 41.377196999999995
375.078762 -32.361137 35.693993
377.843689 -39.05283 35.145809
372.371641 -24.675392000000002 41.993866
364.335519 -21.33086 42.328648
363.480931 -24.654336999999998 36.327438
370.155955 -27.426085999999998 36.10038
355.664481 -21.33086 42.328648
347.628359 -24.675392000000002 41.993866
349.844045 -27.426085999999998 36.10038
356.519069 -24.654336999999998 36.327438
341.496986 -30.836 41.377196999999995
338.16828699999996 -38.910507 40.568946999999994
342.156311 -39.05283 35.145809
344.921238 -32.361137 35.693993
338.16828699999996 -47.623001 39.696822999999995
341.496986 -55.697563 38.888538
344.921238 -52.723892000000006 34.022831
342.156311 -46.032123999999996 34.571059999999996
347.628359 -61.858245999999994 38.271832
355.664481 -65.202843 37.937022999999996
356.519069 -60.430824 33.389346999999994
349.844045 -57.659018999999994 33.616413
364.989323 -53.902405 90.346085
366.47501 -58.761703000000004 88.935867
362.97043099999996 -60.027302 88.780457
360.0 -55.704184999999995 90.124832
371.029015 -63.603545999999994 85.699875
366.318237 -62.61974 87.362625
371.271202 -59.158646 87.87763199999999
360.0 -63.228981000000005 87.377815
363.936419 -66.16487099999999 85.385361
367.055969 -49.552525 90.880196
372.12748 -52.043831 89.76075
370.675835 -55.099258 89.385582
379.53380400000003 -52.566479 87.05510699999999
375.253577 -54.829567000000004 88.319183
375.939889 -49.331978 89.08422900000001
376.595953 -58.750076 86.295837
364.989323 -45.202663 91.414291
370.675835 -43.808968 90.771866
372.12748 -46.864376 90.396713
376.595953 -39.519112 88.65711999999999
375.253577 -43.812637 89.671906
371.271202 -39.505375 90.29077099999999
379.53380400000003 -45.702663 87.89788100000001
360.0 -43.400883 91.635521
362.97043099999996 -38.880943 91.37694499999999
366.47501 -40.146545 91.22155
363.936419 -32.104317 89.567528
366.318237 -36.022498999999996 90.628403
360.0 -35.435024 90.790543
371.029015 -34.665657 89.253036
355.010677 -45.202663 91.414291
353.52499 -40.146545 91.22155
357.02956900000004 -38.880943 91.37694499999999
348.970985 -34.665657 89.253036
353.681763 -36.022498999999996 90.628403
348.728798 -39.505375 90.29077099999999
356.063581 -32.104317 89.567528
352.944031 -49.552525 90.880196
347.87252 -46.864376 90.396713
349.324165 -43.808968 90.771866
340.46619599999997 -45.702667 87.89788100000001
344.746423 -43.812637 89.671906
344.060111 -49.331978 89.08422900000001
343.404047 -39.519112 88.65711999999999
355.010677 -53.902405 90.346085
349.324165 -55.099258 89.385582
347.87252 -52.043831 89.76075
343.404047 -58.750076 86.295837
344.746423 -54.829563 88.319183
348.728798 -59.158646 87.87763199999999
340.46619599999997 -52.566483 87.05510699999999
357.02956900000004 -60.027302 88.780457
353.52499 -58.761703000000004 88.935867
356.063581 -66.16487099999999 85.385361
353.681763 -62.61974 87.362625
348.970985 -63.603545999999994 85.699875
369.035843 -67.88446 82.952339
365.245998 -71.616219 79.750504
360.0 -69.383507 82.78627
376.63919599999997 -63.37465699999999 83.524101
374.949361 -68.100403 80.18220500000001
377.622589 -71.341629 73.004456
371.357165 -72.33917199999999 76.45554399999999
381.0201 -66.693375 77.14877299999999
360.0 -74.3759 76.20546
366.175664 -75.592239 72.48254399999999
381.814459 -56.743584 84.32032
382.368326 -61.610756 80.97905
383.531382 -48.867985 85.305336
386.387592 -53.122803000000005 82.021263
391.097778 -53.250195 75.225838
387.418629 -58.16720600000001 78.195679
389.726917 -48.146126 79.426125
386.356302 -63.512077000000005 73.96582
381.814459 -40.98806 86.25486
386.387592 -43.945087 83.14814799999999
376.63919599999997 -34.361385 87.086502
382.368326 -35.457176000000004 84.190315
386.356302 -31.915699 77.84536
387.418629 -38.125069 80.65654
381.0201 -29.598923 81.7034
391.097778 -42.177555 76.585388
369.035843 -29.847208000000002 87.622765
374.949361 -28.967537 84.98712900000001
360.0 -28.352490999999997 87.82429499999999
365.245998 -25.451683 85.418823
366.175664 -19.835506 79.328621
371.357165 -23.953106 82.396622
360.0 -21.916348 82.64670600000001
377.622589 -24.086143 78.806702
350.964157 -29.847208000000002 87.622765
354.754002 -25.451683 85.418823
343.36080400000003 -34.361385 87.086502
345.050639 -28.967537 84.98712900000001
342.377411 -24.086143 78.806702
348.642835 -23.953106 82.396622
338.9799 -29.598923 81.7034
353.824336 -19.835506 79.328621
338.185541 -40.98806 86.25486
337.631674 -35.457176000000004 84.190315
336.468618 -48.867985 85.305336
333.612408 -43.945087 83.14814799999999
328.902222 -42.177555 76.585388
332.581371 -38.125069 80.65654
330.273083 -48.146126 79.426125
333.643698 -31.915699 77.84536
338.185541 -56.743584 84.32032
333.612408 -53.122803000000005 82.021263
343.36080400000003 -63.374653 83.524101
337.631674 -61.610756 80.97905
333.643698 -63.512077000000005 73.965813
332.581371 -58.16720600000001 78.195679
338.9799 -66.693382 77.14876600000001
328.902222 -53.250195 75.225838
350.964157 -67.88445300000001 82.952339
345.050639 -68.100403 80.182198
354.754002 -71.616219 79.750504
353.824336 -75.592239 72.48254399999999
348.642835 -72.33917199999999 76.45554399999999
342.377411 -71.341637 73.004456
372.50142800000003 -75.003113 68.70011099999999
366.393219 -77.245926 64.350914
360.0 -77.33976 68.413208
383.137928 -68.525963 69.495407
378.24339299999997 -72.59684 64.92083000000001
377.360518 -71.624001 56.47583
372.34466399999997 -75.293701 60.35849399999999
382.847786 -68.513641 61.185665
360.0 -77.739632 60.060085
366.083823 -76.285446 55.912689
390.181129 -58.744301 70.696457
387.284779 -64.033302 65.97060400000001
392.721985 -47.247597 72.108086
392.193291 -52.809422 67.34650400000001
390.63533 -51.783966 58.872634999999995
389.802673 -58.274517 62.434853000000004
392.311672 -46.240147 63.903057
385.964355 -63.037693000000004 57.513115
390.181129 -35.750912 73.51969100000001
392.193291 -40.698772 68.8311
383.137928 -25.969273 74.720711
387.284779 -29.474921999999996 70.206985
385.964355 -28.38744 61.699112
389.802673 -34.205795 65.371262
382.847786 -23.966715 66.62044499999999
390.63533 -39.641121000000005 60.339581
372.50142800000003 -19.492123 75.516014
378.24339299999997 -20.911410999999998 71.25676
360.0 -17.155464000000002 75.802925
366.393219 -16.262335 71.826683
366.083823 -15.139797 63.299538
372.34466399999997 -17.186692999999998 67.447624
360.0 -14.740785999999998 67.746033
377.360518 -19.801192999999998 62.736397
347.49857199999997 -19.492123 75.516014
353.606781 -16.262335 71.826683
336.862072 -25.969273 74.720711
341.75660700000003 -20.911410999999998 71.25676
342.639482 -19.801192999999998 62.736397
347.65533600000003 -17.186692999999998 67.447624
337.152214 -23.966715 66.62044499999999
353.916177 -15.139797 63.299538
329.818871 -35.750912 73.51969100000001
332.715221 -29.474921999999996 70.206985
327.278015 -47.247597 72.108086
327.806709 -40.698772 68.8311
329.36467 -39.641121000000005 60.339581
330.197327 -34.205795 65.371262
327.688328 -46.240147 63.903057
334.035645 -28.38744 61.699112
329.818871 -58.744301 70.696457
327.806709 -52.809422 67.34650400000001
336.862072 -68.52597 69.495407
332.715221 -64.033302 65.97060400000001
334.035645 -63.037693000000004 57.513115
330.197327 -58.274517 62.434853000000004
337.152214 -68.513641 61.185665
329.36467 -51.783966 58.872634999999995
347.49857199999997 -75.003113 68.70011099999999
341.75660700000003 -72.59684 64.92083000000001
353.606781 -77.245926 64.350914
353.916177 -76.285446 55.912689
347.65533600000003 -75.293701 60.35849399999999
342.639482 -71.624001 56.47583
371.419712 -73.026543 51.947701
365.496346 -72.714691 47.741432
360.0 -75.37101700000001 51.669411
381.135868 -66.527702 52.719101
375.684122 -68.435898 48.236286
373.538797 -64.08575400000001 41.112705
370.082553 -68.784065 44.200592
378.661026 -63.03478199999999 44.842171
360.0 -70.85813900000001 43.969139
364.74453700000004 -67.756546 40.722034
387.569649 -56.713271999999996 53.884041
383.45714599999997 -60.554428 49.147785
389.890659 -45.17807 55.253235
387.677082 -50.224517999999996 50.342438
383.891336 -48.462177000000004 42.775444
384.341473 -54.352332999999994 45.81105
386.390715 -44.147572 46.949795
380.24861 -57.324234 41.832306
387.569649 -33.642891 56.622432999999994
387.677082 -39.078472 51.631477000000004
381.135868 -23.828523999999998 57.787376
383.45714599999997 -28.748606 52.826126
380.24861 -30.037964000000002 44.736191
384.341473 -33.942837 48.088531
378.661026 -25.260448 49.057388
383.891336 -38.899967 43.793083
371.419712 -17.329757999999998 58.55876899999999
375.684122 -20.867217999999998 53.73761
360.0 -14.985322 58.837051
365.496346 -16.58849 54.232452
364.74453700000004 -19.605797 45.846405
370.082553 -19.511248000000002 49.69894
360.0 -17.43722 49.930382
373.538797 -23.276516 45.455757
348.580288 -17.329757999999998 58.55876899999999
354.503654 -16.58849 54.232452
338.864132 -23.828523999999998 57.787376
344.315878 -20.867217999999998 53.73761
346.461203 -23.276516 45.455757
349.917447 -19.511248000000002 49.69894
341.338974 -25.260448 49.057388
355.25546299999996 -19.605797 45.846405
332.430351 -33.642891 56.622432999999994
336.54285400000003 -28.748606 52.826126
330.109341 -45.17807 55.253235
332.322918 -39.078472 51.631477000000004
336.108664 -38.899967 43.793083
335.658527 -33.942837 48.088531
333.609285 -44.147572 46.949795
339.75139 -30.037964000000002 44.736191
332.430351 -56.713271999999996 53.884041
332.322918 -50.224517999999996 50.342438
338.864132 -66.527702 52.719101
336.54285400000003 -60.554428 49.147785
339.75139 -57.324234 41.832306
335.658527 -54.352332999999994 45.81105
341.338974 -63.03478199999999 44.842171
336.108664 -48.462177000000004 42.775444
348.580288 -73.026543 51.947701
344.315878 -68.435898 48.236286
354.503654 -72.714691 47.741432
355.25546299999996 -67.756546 40.722034
349.917447 -68.784065 44.200592
346.461203 -64.08575400000001 41.112705
368.512309 -63.915588 38.065884000000004
363.91279399999996 -62.735401 35.538139
360.0 -65.65394599999999 37.891865
375.75478599999997 -59.096886 38.548256
371.22110399999997 -59.698723 35.817776
369.1335 -55.679226 31.541399
366.890153 -59.218479 33.486858000000005
372.983704 -55.558727000000005 33.790805999999996
360.0 -60.95021800000001 33.348602
363.04449999999997 -58.207676 31.365601
380.550575 -51.819771 39.276718
376.754656 -54.147835 36.329899
382.28067599999997 -43.26675 40.132889
379.781889 -46.816628 37.005005
375.961301 -45.258553000000006 32.266048
376.63435 -49.449898 34.29031
378.36179500000003 -42.542469 34.858437
373.4391 -51.36285 31.841549
380.550575 -34.71376 40.989036999999996
379.781889 -38.966515 37.729237
375.75478599999997 -27.436714000000002 41.717461
376.754656 -31.635371999999997 38.404305
373.4391 -33.050098 33.114975
376.63435 -35.635094 35.426536999999996
372.983704 -29.526344 35.925999
375.961301 -39.154301000000004 32.690521000000004
368.512309 -22.618088 42.199799
371.22110399999997 -26.084557 38.916393
360.0 -20.879766 42.373802000000005
363.91279399999996 -23.047935 39.196007
363.04449999999997 -26.2054 33.590897
366.890153 -25.866654999999998 36.229927
360.0 -24.134956 36.368179
369.1335 -28.733798999999998 33.4151
351.487691 -22.618088 42.199799
356.08720600000004 -23.047935 39.196007
344.24521400000003 -27.436714000000002 41.717461
348.77889600000003 -26.084557 38.916393
350.8665 -28.733798999999998 33.4151
353.109847 -25.866654999999998 36.229927
347.016296 -29.526344 35.925999
356.95550000000003 -26.2054 33.590897
339.449425 -34.71376 40.989036999999996
343.245344 -31.635371999999997 38.404305
337.71932400000003 -43.26675 40.132889
340.218111 -38.966515 37.729237
344.038699 -39.154301000000004 32.690521000000004
343.36565 -35.635094 35.426536999999996
341.63820499999997 -42.542469 34.858437
346.5609 -33.050098 33.114975
339.449425 -51.819771 39.276718
340.218111 -46.816628 37.005005
344.24521400000003 -59.096886 38.548256
343.245344 -54.147835 36.329899
346.5609 -51.36285 31.841549
343.36565 -49.449898 34.29031
347.016296 -55.558727000000005 33.790805999999996
344.038699 -45.258553000000006 32.266048
351.487691 -63.915588 38.065884000000004
348.77889600000003 -59.698723 35.817776
356.08720600000004 -62.735401 35.538139
356.95550000000003 -58.207676 31.365601
353.109847 -59.218479 33.486858000000005
350.8665 -55.679226 31.541399
365.27401199999997 -60.515823 88.397751
372.732594 -54.013142 89.19622
372.732594 -44.817001 90.32537099999999
365.27401199999997 -38.31435 91.123795
354.72598800000003 -38.31435 91.123795
347.267406 -44.816998 90.32537099999999
347.267406 -54.013142 89.19622
354.72598800000003 -60.515823 88.397743
370.294838 -70.274361 79.91301
384.853943 -57.538952 81.476776
384.853943 -39.528412 83.688187
370.294838 -26.793011 85.25187700000001
349.705162 -26.793013000000002 85.25187700000001
335.146057 -39.528412 83.688187
335.146057 -57.538956000000006 81.476768
349.705162 -70.274361 79.91301
372.552372 -75.456604 64.570259
390.304123 -58.643055000000004 66.631378
390.304123 -34.86515 69.546219
372.552372 -18.051655 71.60733
347.447628 -18.051655 71.60733
329.695877 -34.86515 69.546219
329.695877 -58.643055000000004 66.631378
347.447628 -75.456604 64.570267
370.791464 -71.067886 47.931892
386.052929 -55.593513 49.721519
386.052929 -33.709496 52.252396000000005
370.791463 -18.235267999999998 54.042
349.208536 -18.235267999999998 54.042
333.947071 -33.709496 52.252399
333.947071 -55.593509999999995 49.721515999999994
349.208537 -71.067886 47.931892
367.69626800000003 -61.530273 35.648293
378.580482 -50.611969 36.655167
378.58048099999996 -35.171203999999996 38.079056
367.69626800000003 -24.253042 39.085861
352.30373199999997 -24.253044 39.085861
341.419518 -35.171203999999996 38.079056
341.41951900000004 -50.611969 36.655167
352.30373199999997 -61.530273 35.648293
368.315096 -56.715225 89.28392
367.677777 -65.29205300000001 85.470047
360.0 -59.718033 88.915184
371.759323 -49.465804999999996 90.17405699999999
378.535797 -55.825615 86.632423
368.315096 -42.216431 91.064163
378.535797 -42.438103000000005 88.27621500000001
360.0 -39.213615000000004 91.432861
367.677777 -32.971703000000005 89.43852199999999
351.684904 -42.216431 91.064163
352.322223 -32.971703000000005 89.43852199999999
348.240677 -49.465804999999996 90.17405699999999
341.464203 -42.438103000000005 88.27621500000001
351.684904 -56.715225 89.283913
341.464203 -55.825615 86.63243100000001
352.322223 -65.29205300000001 85.470039
379.032784 -65.182983 80.542679
372.125227 -73.956284 72.68341099999999
360.0 -72.07911700000001 79.695908
386.916426 -48.534214 82.586929
389.272898 -58.583831999999994 74.570938
379.032784 -31.885508 84.63110400000001
389.272898 -36.843933 77.24026500000001
360.0 -24.989314999999998 85.47784399999999
372.125227 -21.471478 79.127747
340.967216 -31.885506 84.63110400000001
347.874773 -21.471478 79.127747
333.083574 -48.534214 82.586929
330.727102 -36.843933 77.24026500000001
340.967216 -65.182983 80.542679
330.727102 -58.583828000000004 74.570938
347.874773 -73.956284 72.68341099999999
383.232218 -68.758461 65.391357
371.944908 -74.491371 56.129429
360.0 -77.87297099999999 64.274048
392.855331 -46.754093 68.088806
388.837582 -57.633114 58.166022999999996
383.232216 -24.749779 70.786224
388.837584 -33.791992 61.046195999999995
360.0 -15.635285999999999 71.90355699999999
371.944908 -16.933854999999998 63.082802
336.767782 -24.749779 70.786224
348.055092 -16.933857 63.082802
327.144669 -46.754096999999994 68.088806
331.162418 -33.791992 61.046195999999995
336.767784 -68.758461 65.391357
331.162416 -57.633114 58.166022999999996
348.055092 -74.491371 56.129429
379.973093 -64.903244 48.644844
369.315371 -66.34375 40.872395000000004
360.0 -73.291801 47.674690000000005
388.24625000000003 -44.651489 50.986954
382.489336 -53.068253000000006 42.285247999999996
379.973095 -24.399834 53.329063
382.489336 -34.293919 44.283264
360.0 -16.011395999999998 54.29919399999999
369.315371 -21.018566 45.696053000000006
340.026907 -24.399834 53.32906
350.684629 -21.018564 45.696053000000006
331.75374999999997 -44.651489 50.986958
337.510664 -34.293919 44.283264
340.026905 -64.90323599999999 48.644844
337.510664 -53.068249 42.285247999999996
350.684629 -66.34375 40.872395000000004
374.30225 -57.238625 36.04538
366.089 -56.943451 31.453499
360.0 -63.181362 35.497894
380.226486 -42.891566999999995 37.367123
374.700201 -48.310699 32.053799
374.30225 -28.544621000000003 38.688805
374.700201 -36.1022 32.902747999999995
360.0 -22.601986 39.236252
366.089 -27.469601 33.502998
345.69775 -28.544621000000003 38.688805
353.911 -27.469601 33.502998
339.773514 -42.891566999999995 37.367123
345.299799 -36.1022 32.902747999999995
345.69775 -57.238625 36.04538
345.299799 -48.310699 32.053799
353.911 -56.943451 31.453499
360.0 -49.619499 91.425529
360.0 -66.397354 85.37931800000001
373.998837 -61.342009999999995 86.000076
379.797348 -49.137291 87.498657
373.998837 -36.932644 88.997192
360.0 -31.877264 89.61790500000001
346.001163 -36.932644 88.997192
340.202652 -49.137291 87.498665
346.001163 -61.342003000000005 86.000076
360.0 -76.16555 72.412155
382.441647 -67.832245 73.435364
391.737291 -47.713871000000005 75.905609
382.441648 -27.595540999999997 78.375809
360.0 -19.262192000000002 79.399017
337.558353 -27.595540999999997 78.375801
328.262709 -47.713875 75.905609
337.558352 -67.832245 73.435356
360.0 -76.914169 55.836739
382.107914 -67.775421 56.940765
391.265335 -45.712540000000004 59.60611
382.107914 -23.649744000000002 62.271460999999995
360.0 -14.511089000000002 63.375488
337.892086 -23.649744000000002 62.271460999999995
328.734665 -45.712543 59.60611
337.892086 -67.775421 56.940765
360.0 -68.25164000000001 40.669342
377.241112 -61.055083999999994 41.435249
384.382654 -43.681067999999996 43.284264
377.241112 -26.307147999999998 45.133232
360.0 -19.110706 45.899094
342.758888 -26.307147999999998 45.133232
335.617346 -43.681072 43.284264
342.758888 -61.055083999999994 41.435249
360.0 -59.471901 31.2777
372.178 -54.415001000000004 31.629299
377.222401 -42.206402000000004 32.478297999999995
372.178 -29.997999 33.327202
360.0 -24.9412 33.678799
347.822 -29.997999 33.327202
342.777599 -42.206402000000004 32.478297999999995
347.822 -54.415001000000004 31.629299
363.245592 34.805618 12.994253
369.20527200000004 34.805618 11.021955
372.111745 33.07312 14.47272
364.244443 33.07312 17.076328
373.795218 34.805618 7.354736
376.263783 34.805618 2.593131
381.373028 33.07312 3.391175
378.11429 33.07312 9.676894
376.263783 34.805618 -2.593131
373.795218 34.805618 -7.354736
378.11429 33.07312 -9.676894
381.373028 33.07312 -3.391175
369.20527200000004 34.805618 -11.021955
363.245592 34.805618 -12.994253
364.244443 33.07312 -17.076328
372.111745 33.07312 -14.47272
356.754408 34.805618 -12.994253
350.79472799999996 34.805618 -11.021955
347.888255 33.07312 -14.47272
355.755556 33.07312 -17.076328
346.204782 34.805618 -7.354736
343.736217 34.805618 -2.593131
338.626972 33.07312 -3.391175
341.88571 33.07312 -9.676894
343.736217 34.805618 2.593131
346.204782 34.805618 7.354736
341.88571 33.07312 9.676894
338.626972 33.07312 3.391175
350.79472799999996 34.805618 11.021955
356.754408 34.805618 12.994253
355.755556 33.07312 17.076328
347.888255 33.07312 14.47272
365.147494 30.787243 20.709469
374.68865 30.787243 17.551916000000002
377.10731499999997 27.788818 20.442032
365.995091 27.788818 24.119511
381.96831299999997 30.787243 11.735733
385.920399 30.787243 4.112675
390.18853 27.788818 4.789872
385.585672 27.788818 13.66815
385.920399 30.787243 -4.112675
381.96831299999997 30.787243 -11.735733
385.585674 27.788818 -13.66815
390.18853 27.788818 -4.789872
374.68865 30.787243 -17.551916000000002
365.147494 30.787243 -20.709469
365.995091 27.788818 -24.119511
377.10731699999997 27.788818 -20.442032
354.852506 30.787243 -20.709469
345.31135 30.787243 -17.551916000000002
342.89268500000003 27.788818 -20.442032
354.00491 27.788818 -24.119511
338.03168700000003 30.787243 -11.735733
334.079601 30.787243 -4.112675
329.81147 27.788818 -4.789872
334.414328 27.788818 -13.66815
334.079601 30.787243 4.112675
338.03168700000003 30.787243 11.735733
334.414326 27.788818 13.66815
329.81147 27.788818 4.789872
345.31135 30.787243 17.551916000000002
354.852506 30.787243 20.709469
354.00491 27.788818 24.119511
342.89268300000003 27.788818 20.442032
371.38518 -61.583293999999995 36.990372
392.48821599999997 -61.583293999999995 31.350451
392.011936 -66.05291 29.479046000000004
371.218271 -66.05291700000001 34.782307
408.589294 -61.583293999999995 20.961821
417.33046 -61.583293999999995 7.345866
416.489967 -66.05291 6.907367
407.876961 -66.05291 19.710545
417.33046 -61.583293999999995 -7.345864999999999
408.589294 -61.583293999999995 -20.961821
407.876961 -66.05291 -19.710545
416.489967 -66.05291 -6.907367
392.48821599999997 -61.583293999999995 -31.350451
371.38518 -61.583293999999995 -36.990372
371.218271 -66.05291 -34.782307
392.011936 -66.05291 -29.479046000000004
348.61482 -61.583293999999995 -36.990372
327.51178400000003 -61.583293999999995 -31.350451
327.988064 -66.05291 -29.479046000000004
348.781729 -66.05291 -34.782307
311.410706 -61.583293999999995 -20.961821
302.66954 -61.583293999999995 -7.345866
303.510033 -66.05291 -6.907367
312.123039 -66.05291 -19.710545
302.66954 -61.583293999999995 7.345864999999999
311.410706 -61.583293999999995 20.961821
312.123039 -66.05291 19.710545
303.510033 -66.05291 6.907367
327.51178400000003 -61.583293999999995 31.350451
348.61482 -61.583293999999995 36.990372
348.781729 -66.05291700000001 34.782307
327.988064 -66.05291 29.479046000000004
370.92792099999997 -70.01816600000001 32.275467
391.183407 -70.018158 27.354421999999996
389.980331 -73.58744 24.960222
370.506315 -73.58744 29.450553999999997
406.63781 -70.018158 18.289957
415.027893 -70.018158 6.409536
412.904892 -73.58744 5.848541
404.838501 -73.58744 16.689125
415.027893 -70.018158 -6.409536
406.63781 -70.018158 -18.289957
404.838501 -73.58744 -16.689125
412.904892 -73.58744 -5.848541
391.183407 -70.018158 -27.354421999999996
370.92792099999997 -70.018158 -32.275467
370.506315 -73.58744 -29.450553999999997
389.980331 -73.58744 -24.960222
349.07207900000003 -70.018158 -32.275467
328.816593 -70.018158 -27.354421999999996
330.019669 -73.58744 -24.960222
349.493685 -73.58744 -29.450553999999997
313.36219 -70.018158 -18.289957
304.972107 -70.018158 -6.409536
307.095108 -73.58744 -5.848541
315.161499 -73.58744 -16.689125
304.972107 -70.018158 6.409536
313.36219 -70.018158 18.289957
315.161499 -73.58744 16.689125
307.095108 -73.58744 5.848541
328.816593 -70.018158 27.354421999999996
349.07207900000003 -70.01816600000001 32.275467
349.493685 -73.58744 29.450553999999997
330.019669 -73.58744 24.960222
369.96981600000004 -76.622314 26.506646999999997
388.44939999999997 -76.622314 22.465176
386.648882 -79.007286 20.075317000000002
369.338842 -79.007286 23.686852
402.54884300000003 -76.622314 15.020866
410.203331 -76.622314 5.263916
407.026031 -79.007286 4.703938
399.855988 -79.007286 13.422938
410.203331 -76.622314 -5.263916
402.54884300000003 -76.622314 -15.020866
399.855988 -79.007286 -13.422938
407.026031 -79.007286 -4.703938
388.44939999999997 -76.622314 -22.465176
369.96981600000004 -76.622314 -26.506646999999997
369.338842 -79.007286 -23.686852
386.648882 -79.007286 -20.075317000000002
350.03018399999996 -76.622314 -26.506646999999997
331.55060000000003 -76.622314 -22.465176
333.351118 -79.007286 -20.075317000000002
350.661158 -79.007286 -23.686852
317.45115699999997 -76.622314 -15.020866
309.796669 -76.622314 -5.263916
312.973969 -79.007286 -4.703938
320.144012 -79.007286 -13.422938
309.796669 -76.622314 5.263916
317.45115699999997 -76.622314 15.020866
320.144012 -79.007286 13.422938
312.973969 -79.007286 4.703938
331.55060000000003 -76.622314 22.465176
350.03018399999996 -76.622314 26.506646999999997
350.661158 -79.007286 23.686852
333.351118 -79.007286 20.075317000000002
368.637874 -80.649788 21.27829
384.64862800000003 -80.649788 18.033989000000002
381.74543 -81.594009 15.817425
367.675335 -81.594009 18.645167999999998
396.86441 -80.649788 12.058048
403.496265 -80.649788 4.225625
398.427979 -81.594009 3.724049
392.59997599999997 -81.594009 10.550819
403.496265 -80.649788 -4.225625
396.86441 -80.649788 -12.058048
392.59997599999997 -81.594009 -10.550819
398.427979 -81.594009 -3.724049
384.64862800000003 -80.649788 -18.033989000000002
368.637874 -80.649788 -21.27829
367.675335 -81.594009 -18.645167999999998
381.74543 -81.594009 -15.817425
351.362126 -80.649788 -21.27829
335.35137199999997 -80.649788 -18.033989000000002
338.25457 -81.594009 -15.817425
352.324665 -81.594009 -18.645167999999998
323.13559 -80.649788 -12.058048
316.503735 -80.649788 -4.225625
321.572021 -81.594009 -3.724049
327.40002400000003 -81.594009 -10.550819
316.503735 -80.649788 4.225625
323.13559 -80.649788 12.058048
327.40002400000003 -81.594009 10.550819
321.572021 -81.594009 3.724049
335.35137199999997 -80.649788 18.033989000000002
351.362126 -80.649788 21.27829
352.324665 -81.594009 18.645167999999998
338.25457 -81.594009 15.817425
366.04360199999996 -82.020882 14.228792000000002
376.463005 -82.020882 12.134748
366.521227 -82.127602 7.638761
385.009935 -82.020882 7.9877970000000005
389.325779 -82.020882 2.9323349999999997
375.743623 -82.127602 3.1640770000000003
389.325779 -82.020882 -2.9323349999999997
385.009935 -82.020882 -7.9877970000000005
375.743623 -82.127602 -3.1640770000000003
376.463005 -82.020882 -12.134748
366.04360199999996 -82.020882 -14.228792000000002
366.521227 -82.127602 -7.638761
353.95639800000004 -82.020882 -14.228792000000002
343.536995 -82.020882 -12.134748
353.478773 -82.127602 -7.638761
334.990065 -82.020882 -7.9877970000000005
330.674221 -82.020882 -2.9323349999999997
344.256377 -82.127602 -3.1640770000000003
330.674221 -82.020882 2.9323349999999997
334.990065 -82.020882 7.9877970000000005
344.256377 -82.127602 3.1640770000000003
343.536995 -82.020882 12.134748
353.95639800000004 -82.020882 14.228792000000002
353.478773 -82.127602 7.638761
392.716927 -49.500183 34.826698
392.703537 -56.25407 33.170066999999996
371.460636 -56.25407 39.137337
371.465328 -49.500183 41.091991
417.73407 -49.500183 8.1604
417.710442 -56.25407 7.772228
408.911331 -56.25407 22.178469
408.931358 -49.500183 23.286139000000002
408.931358 -49.500183 -23.286139000000002
408.911331 -56.25407 -22.178469
417.710442 -56.25407 -7.772228
417.73407 -49.500183 -8.1604
371.465328 -49.500183 -41.091991
371.460636 -56.25407 -39.137337
392.703537 -56.25407 -33.170066999999996
392.716927 -49.500183 -34.826698
327.283073 -49.500183 -34.826691
327.296463 -56.25407 -33.170066999999996
348.539364 -56.25407 -39.137337
348.534672 -49.500183 -41.091991
302.26593 -49.500183 -8.160397999999999
302.289558 -56.25407 -7.772228
311.088669 -56.25407 -22.178469
311.068642 -49.500183 -23.286135
311.068642 -49.500183 23.286135
311.088669 -56.25407 22.178469
302.289558 -56.25407 7.772228
302.26593 -49.500183 8.160397999999999
348.534672 -49.500183 41.091991
348.539364 -56.25407 39.137337
327.296463 -56.25407 33.170066999999996
327.283073 -49.500183 34.826691
371.286063 -29.79215 42.790306
392.205379 -29.79215 36.266102000000004
392.555164 -40.546757 35.896503
371.408641 -40.546757 42.354240000000004
408.16627900000003 -29.79215 24.248589000000003
416.83133699999996 -29.79215 8.497684
417.448601 -40.546757 8.411076
408.68942300000003 -40.546757 24.00145
416.83133699999996 -29.79215 -8.497684
408.16627900000003 -29.79215 -24.248589000000003
408.68942300000003 -40.546757 -24.00145
417.448601 -40.546757 -8.411076
392.205379 -29.79215 -36.266102000000004
371.286063 -29.79215 -42.790306
371.408641 -40.546757 -42.354240000000004
392.555164 -40.546757 -35.896503
348.713938 -29.79215 -42.790290999999996
327.794621 -29.79215 -36.266064
327.444836 -40.546757 -35.896481
348.591359 -40.546757 -42.354233
311.83372099999997 -29.79215 -24.24855
303.16866300000004 -29.79215 -8.497669
302.551399 -40.546757 -8.411067
311.31057699999997 -40.546757 -24.001431
303.16866300000004 -29.79215 8.497669
311.83372099999997 -29.79215 24.24855
311.31057699999997 -40.546757 24.001431
302.551399 -40.546757 8.411067
327.794621 -29.79215 36.266064
348.713938 -29.79215 42.790290999999996
348.591359 -40.546757 42.354233
327.444836 -40.546757 35.896481
370.722053 -8.3334 41.789055
390.595951 -8.3334 35.4175
391.615053 -18.807949 36.132571999999996
371.079188 -18.807949 42.632748
405.759232 -8.3334 23.681181
413.99128 -8.3334 8.298841
415.789619 -18.807949 8.466396000000001
407.283386 -18.807949 24.159307000000002
413.99128 -8.3334 -8.298841
405.759232 -8.3334 -23.681181
407.283386 -18.807949 -24.159307000000002
415.789619 -18.807949 -8.466396000000001
390.595951 -8.3334 -35.4175
370.722053 -8.3334 -41.789055
371.079188 -18.807949 -42.632748
391.615053 -18.807949 -36.132571999999996
349.27794800000004 -8.3334 -41.789047
329.404049 -8.3334 -35.41748
328.384947 -18.807949 -36.132529999999996
348.920813 -18.807949 -42.632732
314.240768 -8.3334 -23.681162
306.00872 -8.3334 -8.298834
304.210381 -18.807949 -8.466382000000001
312.716614 -18.807949 -24.159271
306.00872 -8.3334 8.298834
314.240768 -8.3334 23.681162
312.716614 -18.807949 24.159269000000002
304.210381 -18.807949 8.466382000000001
329.404049 -8.3334 35.41748
349.27794800000004 -8.3334 41.789047
348.920813 -18.807949 42.632732
328.384947 -18.807949 36.132529999999996
368.118133 18.356945 32.595001
366.98447799999997 23.787193 28.100022999999997
379.930586 23.787193 23.815639
383.165529 18.356945 27.625271
369.203764 10.937869000000001 36.698853
386.263435 10.937869000000001 31.103405
388.824127 1.7246 33.766998
370.101133 1.7246 39.841637
394.646317 18.356945 18.471079
389.808149 23.787193 15.923846
395.170624 23.787193 5.580359
400.879166 18.356945 6.473012000000001
399.279533 10.937869000000001 20.796656
406.34589800000003 10.937869000000001 7.287986999999999
410.864635 1.7246 7.912103
403.10929899999996 1.7246 22.577606
400.879166 18.356945 -6.473012000000001
395.170624 23.787193 -5.580359
389.808149 23.787193 -15.923846
394.646317 18.356945 -18.471079
406.34589800000003 10.937869000000001 -7.287988
399.279533 10.937869000000001 -20.796656
403.10929899999996 1.7246 -22.577606
410.864635 1.7246 -7.912103
383.165529 18.356945 -27.625271
379.930586 23.787193 -23.815639
366.98447799999997 23.787193 -28.100022999999997
368.118133 18.356945 -32.595001
386.263435 10.937869000000001 -31.103405
369.203764 10.937869000000001 -36.698853
370.101133 1.7246 -39.841637
388.824127 1.7246 -33.766998
351.881866 18.356945 -32.595001
353.01552200000003 23.787193 -28.100022999999997
340.069414 23.787193 -23.815639
336.834471 18.356945 -27.625271
350.796235 10.937869000000001 -36.698853
333.736565 10.937869000000001 -31.103405
331.175873 1.7246 -33.766994
349.898867 1.7246 -39.841637
325.353683 18.356945 -18.471079
330.191851 23.787193 -15.923846
324.829376 23.787193 -5.580359
319.120834 18.356945 -6.473012000000001
320.720467 10.937869000000001 -20.796656
313.65410199999997 10.937869000000001 -7.287986999999999
309.135365 1.7246 -7.912102
316.89070100000004 1.7246 -22.577602
319.120834 18.356945 6.473012000000001
324.829376 23.787193 5.580359
330.191851 23.787193 15.923846
325.353683 18.356945 18.471079
313.65410199999997 10.937869000000001 7.287988
320.720467 10.937869000000001 20.796656
316.89070100000004 1.7246 22.577602
309.135365 1.7246 7.912102
336.834471 18.356945 27.625271
340.069414 23.787193 23.815639
353.01552200000003 23.787193 28.100022999999997
351.881866 18.356945 32.595001
333.736565 10.937869000000001 31.103405
350.796235 10.937869000000001 36.698853
349.898867 1.7246 39.841637
331.175873 1.7246 33.766994
362.340831 36.700245 4.515192
366.189415 36.012436 7.507217
362.26748299999997 36.012436 8.80514
365.651252 36.700245 1.8702599999999998
371.020604 36.012436 1.8116560000000002
369.39610400000004 36.012436 4.945168
365.651252 36.700245 -1.8702599999999998
369.39610400000004 36.012436 -4.945168
371.020604 36.012436 -1.8116560000000002
362.340831 36.700245 -4.515192
362.26748299999997 36.012436 -8.80514
366.189415 36.012436 -7.507217
357.659169 36.700245 -4.515192
353.810585 36.012436 -7.507217
357.73251700000003 36.012436 -8.80514
354.348748 36.700245 -1.8702599999999998
348.979396 36.012436 -1.8116560000000002
350.60389599999996 36.012436 -4.945168
354.348748 36.700245 1.8702599999999998
350.60389599999996 36.012436 4.945168
348.979396 36.012436 1.8116560000000002
357.659169 36.700245 4.515192
357.73251700000003 36.012436 8.80514
353.810585 36.012436 7.507217
362.74666 35.473007 10.891707
366.35830699999997 34.800789 12.264403
363.749709 34.006809000000004 15.070039000000001
360.0 34.810444 13.231029000000001
371.70980299999997 34.810444 9.355777999999999
370.685943 34.006809000000004 12.774559
367.697255 35.473007 9.253359
373.455155 32.001083 16.07799
368.33349 33.07312 16.074265
375.42381 33.07312 12.323122
360.0 33.07312 17.42749
364.715228 32.001083 18.970385
371.581602 35.473007 6.149883999999999
375.350286 34.800789 5.0800980000000004
375.988822 34.006809000000004 8.537736
376.560137 34.810444 0.0
378.861893 34.006809000000004 2.995902
373.632188 35.473007 2.194503
383.743694 32.001083 3.7673129999999997
380.11881800000003 33.07312 6.658192
381.812553 33.07312 0.0
380.123497 32.001083 10.750223
373.632188 35.473007 -2.194503
375.350286 34.800789 -5.0800980000000004
378.861893 34.006809000000004 -2.995902
371.70980299999997 34.810444 -9.355777999999999
375.988822 34.006809000000004 -8.537736
371.581602 35.473007 -6.149883999999999
380.123497 32.001083 -10.750223
380.11881800000003 33.07312 -6.658192
375.42381 33.07312 -12.323122
383.743694 32.001083 -3.7673129999999997
367.697255 35.473007 -9.253359
366.35830699999997 34.800789 -12.264403
370.685943 34.006809000000004 -12.774559
360.0 34.810444 -13.231029000000001
363.749709 34.006809000000004 -15.070039000000001
362.74666 35.473007 -10.891707
364.715228 32.001083 -18.970385
368.33349 33.07312 -16.074265
360.0 33.07312 -17.42749
373.455155 32.001083 -16.07799
357.25334 35.473007 -10.891707
353.64169300000003 34.800789 -12.264403
356.250291 34.006809000000004 -15.070039000000001
348.29019700000003 34.810444 -9.355777999999999
349.314057 34.006809000000004 -12.774559
352.302745 35.473007 -9.253359
346.544845 32.001083 -16.07799
351.66651 33.07312 -16.074265
344.57619 33.07312 -12.323122
355.284772 32.001083 -18.970385
348.418398 35.473007 -6.149883999999999
344.649714 34.800789 -5.0800980000000004
344.011178 34.006809000000004 -8.537736
343.439863 34.810444 0.0
341.138107 34.006809000000004 -2.995902
346.367812 35.473007 -2.194503
336.256306 32.001083 -3.7673129999999997
339.88118199999997 33.07312 -6.658192
338.187447 33.07312 -0.0
339.876503 32.001083 -10.750223
346.367812 35.473007 2.194503
344.649714 34.800789 5.0800980000000004
341.138107 34.006809000000004 2.995902
348.29019700000003 34.810444 9.355777999999999
344.011178 34.006809000000004 8.537736
348.418398 35.473007 6.149883999999999
339.876503 32.001083 10.750223
339.88118199999997 33.07312 6.658192
344.57619 33.07312 12.323122
336.256306 32.001083 3.7673129999999997
352.302745 35.473007 9.253359
353.64169300000003 34.800789 12.264403
349.314057 34.006809000000004 12.774559
356.250291 34.006809000000004 15.070039000000001
357.25334 35.473007 10.891707
355.284772 32.001083 18.970385
351.66651 33.07312 16.074265
346.544845 32.001083 16.07799
370.10653 30.787243 19.494204
365.565896 29.395264 22.39278
360.0 30.787243 21.135345
378.705397 30.787243 14.944970000000001
375.882586 29.395264 18.978573
378.433197 25.931572 22.026363
371.770692 27.788818 22.70414
381.785473 27.788818 17.405823
360.0 27.788818 24.615513
366.459733 25.931572 25.988861
384.399336 30.787243 8.074777000000001
383.753965 29.395264 12.689638
386.453442 30.787243 0.0
388.027294 29.395264 4.446961
392.528255 25.931572 5.161105
388.41699800000004 27.788818 9.404377
390.809345 27.788818 0.0
387.568661 25.931572 14.727482
384.399336 30.787243 -8.074777000000001
388.027294 29.395264 -4.446961
378.705397 30.787243 -14.944970000000001
383.753965 29.395264 -12.689638
387.568661 25.931572 -14.727482
388.41700000000003 27.788818 -9.404377
381.785473 27.788818 -17.405823
392.528255 25.931572 -5.161105
370.10653 30.787243 -19.494204
375.882586 29.395264 -18.978573
360.0 30.787243 -21.135345
365.565896 29.395264 -22.39278
366.459733 25.931572 -25.988861
371.770693 27.788818 -22.70414
360.0 27.788818 -24.615513
378.433199 25.931572 -22.026363
349.89347 30.787243 -19.494204
354.434104 29.395264 -22.39278
341.294603 30.787243 -14.944970000000001
344.117414 29.395264 -18.978573
341.566803 25.931572 -22.026363
348.229308 27.788818 -22.70414
338.214527 27.788818 -17.405823
353.540267 25.931572 -25.988861
335.600664 30.787243 -8.074777000000001
336.246035 29.395264 -12.689638
333.546558 30.787243 -0.0
331.972706 29.395264 -4.446961
327.471745 25.931572 -5.161105
331.58300199999996 27.788818 -9.404377
329.190655 27.788818 0.0
332.431339 25.931572 -14.727482
335.600664 30.787243 8.074777000000001
331.972706 29.395264 4.446961
341.294603 30.787243 14.944970000000001
336.246035 29.395264 12.689638
332.431339 25.931572 14.727482
331.58299999999997 27.788818 9.404377
338.214527 27.788818 17.405823
327.471745 25.931572 5.161105
349.89347 30.787243 19.494204
344.117414 29.395264 18.978573
354.434104 29.395264 22.39278
353.540267 25.931572 25.988861
348.229307 27.788818 22.70414
341.566801 25.931572 22.026363
371.43234 -59.048336 38.056637
382.353529 -61.583293999999995 34.819702
371.315157 -63.903355000000005 35.908833
360.0 -61.583293999999995 37.751059999999995
401.372414 -61.583293999999995 26.694022999999998
392.288403 -63.903351 30.433811
392.622791 -59.048336 32.254143
391.647408 -68.076378 28.460976000000002
382.025824 -66.05291700000001 32.741207
400.765888 -66.05291 25.100573999999998
360.0 -66.05291700000001 35.497589000000005
371.090527 -68.076385 33.581089
408.790565 -59.048336 21.566055
413.966194 -61.583293999999995 14.422787
408.290447 -63.903351 20.348928
418.509434 -61.583293999999995 0.0
416.977844 -63.903351 7.131083
417.567947 -59.048336 7.557614
415.846695 -68.076378 6.668817999999999
413.175026 -66.05291 13.561845000000002
417.651657 -66.05291 0.0
407.331768 -68.076378 19.029831
417.567947 -59.048336 -7.557614
413.966194 -61.583293999999995 -14.422787
416.977844 -63.903351 -7.131083
401.372414 -61.583293999999995 -26.694022999999998
408.290447 -63.903351 -20.348928
408.790565 -59.048336 -21.566055
407.331768 -68.076378 -19.029831
413.175026 -66.05291 -13.561845000000002
400.765888 -66.05291 -25.100573999999998
415.846695 -68.076378 -6.668817999999999
392.622791 -59.048336 -32.254143
382.353529 -61.583293999999995 -34.819702
392.288403 -63.903351 -30.433811
360.0 -61.583293999999995 -37.751059999999995
371.315157 -63.903351 -35.908833
371.43234 -59.048336 -38.056637
371.090527 -68.076378 -33.581089
382.025824 -66.05291 -32.741207
360.0 -66.05291 -35.497589000000005
391.647408 -68.076378 -28.460976000000002
348.56766 -59.048336 -38.056637
337.646471 -61.583293999999995 -34.819702
348.684843 -63.903351 -35.908833
318.627586 -61.583293999999995 -26.694022999999998
327.711597 -63.903351 -30.433811
327.377209 -59.048336 -32.254143
328.352592 -68.076378 -28.460976000000002
337.974176 -66.05291 -32.741207
319.234112 -66.05291 -25.100573999999998
348.909473 -68.076378 -33.581089
311.209435 -59.048336 -21.566055
306.033806 -61.583293999999995 -14.422787
311.709553 -63.903351 -20.348928
301.490566 -61.583293999999995 -0.0
303.022156 -63.903351 -7.131083
302.432053 -59.048336 -7.557614
304.153305 -68.076378 -6.668817999999999
306.824974 -66.05291 -13.561845000000002
302.348343 -66.05291 -0.0
312.668232 -68.076378 -19.029831
302.432053 -59.048336 7.557614
306.033806 -61.583293999999995 14.422787
303.022156 -63.903351 7.131083
318.627586 -61.583293999999995 26.694022999999998
311.709553 -63.903351 20.348928
311.209435 -59.048336 21.566055
312.668232 -68.076378 19.029831
306.824974 -66.05291 13.561845000000002
319.234112 -66.05291 25.100573999999998
304.153305 -68.076378 6.668817999999999
327.377209 -59.048336 32.254143
337.646471 -61.583293999999995 34.819702
327.711597 -63.903351 30.433811
348.684843 -63.903355000000005 35.908833
348.56766 -59.048336 38.056637
348.909473 -68.076385 33.581089
337.974176 -66.05291700000001 32.741207
328.352592 -68.076378 28.460976000000002
381.455753 -70.018158 30.381474
370.732503 -71.860947 30.890327000000003
360.0 -70.01816600000001 32.939201000000004
399.710789 -70.018158 23.291515
390.625769 -71.860947 26.180473000000003
389.25293 -75.180328 23.714760000000002
380.627977 -73.58744 27.722332
398.178722 -73.58744 21.252922
360.0 -73.58744 30.056192
370.251405 -75.180328 27.981031
411.79875200000004 -70.018158 12.58441
405.80381 -71.860947 17.505020000000002
416.159515 -70.018158 0.0
414.043861 -71.860947 6.134462999999999
411.621284 -75.180328 5.556711
409.800331 -73.58744 11.482957
413.992855 -73.58744 -0.0
403.750603 -75.180328 15.856373999999999
411.79875200000004 -70.018158 -12.58441
414.043861 -71.860947 -6.134462999999999
399.710789 -70.018158 -23.291515
405.80381 -71.860947 -17.505020000000002
403.750603 -75.180328 -15.856373999999999
409.800331 -73.58744 -11.482957
398.178722 -73.58744 -21.252922
411.621284 -75.180328 -5.556711
381.455753 -70.018158 -30.381474
390.625769 -71.860947 -26.180473000000003
360.0 -70.018158 -32.939201000000004
370.732503 -71.860947 -30.890327000000003
370.251405 -75.180328 -27.981031
380.627977 -73.58744 -27.722332
360.0 -73.58744 -30.056192
389.25293 -75.180328 -23.714760000000002
338.544247 -70.018158 -30.381474
349.267497 -71.860947 -30.890327000000003
320.289211 -70.018158 -23.291515
329.374231 -71.860947 -26.180473000000003
330.74707 -75.180328 -23.714760000000002
339.372023 -73.58744 -27.722332
321.821278 -73.58744 -21.252922
349.748595 -75.180328 -27.981031
308.20124799999996 -70.018158 -12.58441
314.19619 -71.860947 -17.505020000000002
303.840485 -70.018158 -0.0
305.956139 -71.860947 -6.134462999999999
308.378716 -75.180328 -5.556711
310.199669 -73.58744 -11.482957
306.007145 -73.58744 0.0
316.249397 -75.180328 -15.856373999999999
308.20124799999996 -70.018158 12.58441
305.956139 -71.860947 6.134462999999999
320.289211 -70.018158 23.291515
314.19619 -71.860947 17.505020000000002
316.249397 -75.180328 15.856373999999999
310.199669 -73.58744 11.482957
321.821278 -73.58744 21.252922
308.378716 -75.180328 5.556711
338.544247 -70.018158 30.381474
329.374231 -71.860947 26.180473000000003
349.267497 -71.860947 30.890327000000003
349.748595 -75.180328 27.981031
339.372023 -73.58744 27.722332
330.74707 -75.180328 23.714760000000002
379.574619 -76.622314 24.951181
369.664608 -77.901825 25.06329
360.0 -76.622314 27.051746
396.229145 -76.622314 19.128462
387.578474 -77.901825 21.241889999999998
385.669357 -79.927132 18.995878
378.335773 -79.007286 22.296858
393.936256 -79.007286 17.093564999999998
360.0 -79.007286 24.173962
368.995578 -79.927132 22.413221
407.257301 -76.622314 10.335111
401.246284 -77.901825 14.202942000000002
411.23574099999996 -76.622314 -0.0
408.666443 -77.901825 4.977282
405.297501 -79.927132 4.45101
404.266457 -79.007286 9.235657000000002
407.99309500000004 -79.007286 0.0
398.39101 -79.927132 12.701195
407.257301 -76.622314 -10.335111
408.666443 -77.901825 -4.977282
396.229145 -76.622314 -19.128462
401.246284 -77.901825 -14.202942000000002
398.39101 -79.927132 -12.701195
404.266457 -79.007286 -9.235657000000002
393.936256 -79.007286 -17.093564999999998
405.297501 -79.927132 -4.45101
379.574619 -76.622314 -24.951181
387.578474 -77.901825 -21.241889999999998
360.0 -76.622314 -27.051746
369.664608 -77.901825 -25.06329
368.995578 -79.927132 -22.413221
378.335773 -79.007286 -22.296858
360.0 -79.007286 -24.173962
385.669357 -79.927132 -18.995878
340.425381 -76.622314 -24.951181
350.335392 -77.901825 -25.06329
323.770855 -76.622314 -19.128462
332.421526 -77.901825 -21.241889999999998
334.330643 -79.927132 -18.995878
341.664227 -79.007286 -22.296858
326.063744 -79.007286 -17.093564999999998
351.004422 -79.927132 -22.413221
312.742699 -76.622314 -10.335111
318.753716 -77.901825 -14.202942000000002
308.76425900000004 -76.622314 0.0
311.333557 -77.901825 -4.977282
314.702499 -79.927132 -4.45101
315.733543 -79.007286 -9.235657000000002
312.00690499999996 -79.007286 0.0
321.60899 -79.927132 -12.701195
312.742699 -76.622314 10.335111
311.333557 -77.901825 4.977282
323.770855 -76.622314 19.128462
318.753716 -77.901825 14.202942000000002
321.60899 -79.927132 12.701195
315.733543 -79.007286 9.235657000000002
326.063744 -79.007286 17.093564999999998
314.702499 -79.927132 4.45101
340.425381 -76.622314 24.951181
332.421526 -77.901825 21.241889999999998
350.335392 -77.901825 25.06329
351.004422 -79.927132 22.413221
341.664227 -79.007286 22.296858
334.330643 -79.927132 18.995878
376.959499 -80.649788 20.029636
368.214777 -81.19787600000001 20.087217000000003
360.0 -80.649788 21.715868
391.389015 -80.649788 15.355432999999998
383.40216399999997 -81.19787600000001 17.02829
379.493887 -81.860809 14.240029999999999
375.030527 -81.594009 17.606302
387.656445 -81.594009 13.418830999999999
360.0 -81.594009 18.977098
366.968595 -81.860809 16.757307
400.943825 -80.649788 8.296543
395.019596 -81.19787600000001 11.379316000000001
404.390743 -80.649788 0.0
401.31039799999996 -81.19787600000001 3.994425
394.537079 -81.860809 3.381139
