-0.08255300000000076 -68.784065 44.200592
-3.5387970000000006 -64.08575400000001 41.112705
18.512309000000002 -63.915588 38.065884000000004
13.912794 -62.735401 35.538139
10.0 -65.65394599999999 37.891865
25.754786 -59.096886 38.548256
21.221103999999997 -59.698723 35.817776
19.133499999999998 -55.679226 31.541399
16.890152999999998 -59.218479 33.486858000000005
22.983704 -55.558727000000005 33.790805999999996
10.0 -60.95021800000001 33.348602
13.0445 -58.207676 31.365601
30.550575 -51.819771 39.276718
26.754656 -54.147835 36.329899
32.280676 -43.26675 40.132889
29.781889000000003 -46.816628 37.005005
25.961301 -45.258553000000006 32.266048
26.63435 -49.449898 34.29031
28.361795 -42.542469 34.858437
23.4391 -51.36285 31.841549
30.550575 -34.71376 40.989036999999996
29.781889000000003 -38.966515 37.729237
25.754786 -27.436714000000002 41.717461
26.754656 -31.635371999999997 38.404305
23.4391 -33.050098 33.114975
26.63435 -35.635094 35.426536999999996
22.983704 -29.526344 35.925999
25.961301 -39.154301000000004 32.690521000000004
18.512309000000002 -22.618088 42.199799
21.221103999999997 -26.084557 38.916393
10.0 -20.879766 42.373802000000005
13.912794 -23.047935 39.196007
13.0445 -26.2054 33.590897
16.890152999999998 -25.866654999999998 36.229927
10.0 -24.134956 36.368179
19.133499999999998 -28.733798999999998 33.4151
1.4876909999999999 -22.618088 42.199799
6.087206 -23.047935 39.196007
-5.754785999999999 -27.436714000000002 41.717461
-1.2211039999999986 -26.084557 38.916393
0.8665000000000003 -28.733798999999998 33.4151
3.1098470000000002 -25.866654999999998 36.229927
-2.9837039999999995 -29.526344 35.925999
6.9555 -26.2054 33.590897
-10.550574999999998 -34.71376 40.989036999999996
-6.754656000000001 -31.635371999999997 38.404305
-12.280676 -43.26675 40.132889
-9.781889000000003 -38.966515 37.729237
-5.961301000000001 -39.154301000000004 32.690521000000004
-6.634350000000001 -35.635094 35.426536999999996
-8.361795 -42.542469 34.858437
-3.4391 -33.050098 33.114975
-10.550574999999998 -51.819771 39.276718
-9.781889000000003 -46.816628 37.005005
-5.754785999999999 -59.096886 38.548256
-6.754656000000001 -54.147835 36.329899
-3.4391 -51.36285 31.841549
-6.634350000000001 -49.449898 34.29031
-2.9837039999999995 -55.558727000000005 33.790805999999996
-5.961301000000001 -45.258553000000006 32.266048
1.4876909999999999 -63.915588 38.065884000000004
-1.2211039999999986 -59.698723 35.817776
6.087206 -62.735401 35.538139
6.9555 -58.207676 31.365601
3.1098470000000002 -59.218479 33.486858000000005
0.8665000000000003 -55.679226 31.541399
15.274011999999999 -60.515823 88.397751
22.732594 -54.013142 89.19622
22.732594 -44.817001 90.32537099999999
15.274011999999999 -38.31435 91.123795
4.725988 -38.31435 91.123795
-2.7325940000000006 -44.816998 90.32537099999999
-2.7325940000000006 -54.013142 89.19622
4.725988 -60.515823 88.397743
20.294838 -70.274361 79.91301
34.853943 -57.538952 81.476776
34.853943 -39.528412 83.688187
20.294838 -26.793011 85.25187700000001
-0.2948380000000004 -26.793013000000002 85.25187700000001
-14.853943000000001 -39.528412 83.688187
-14.853943000000001 -57.538956000000006 81.476768
-0.2948380000000004 -70.274361 79.91301
22.552372 -75.456604 64.570259
40.304123 -58.643055000000004 66.631378
40.304123 -34.86515 69.546219
22.552372 -18.051655 71.60733
-2.552372 -18.051655 71.60733
-20.304122999999997 -34.86515 69.546219
-20.304122999999997 -58.643055000000004 66.631378
-2.552372 -75.456604 64.570267
20.791463999999998 -71.067886 47.931892
36.052929000000006 -55.593513 49.721519
36.052929000000006 -33.709496 52.252396000000005
20.791463 -18.235267999999998 54.042
-0.7914639999999995 -18.235267999999998 54.042
-16.052929000000002 -33.709496 52.252399
-16.052929000000002 -55.593509999999995 49.721515999999994
-0.7914630000000002 -71.067886 47.931892
17.696268 -61.530273 35.648293
28.580482 -50.611969 36.655167
28.580481 -35.171203999999996 38.079056
17.696268 -24.253042 39.085861
2.303732000000001 -24.253044 39.085861
-8.580482 -35.171203999999996 38.079056
-8.580480999999999 -50.611969 36.655167
2.303732000000001 -61.530273 35.648293
18.315096 -56.715225 89.28392
17.677777 -65.29205300000001 85.470047
10.0 -59.718033 88.915184
21.759323000000002 -49.465804999999996 90.17405699999999
28.535797 -55.825615 86.632423
18.315096 -42.216431 91.064163
28.535797 -42.438103000000005 88.27621500000001
10.0 -39.213615000000004 91.432861
17.677777 -32.971703000000005 89.43852199999999
1.6849039999999995 -42.216431 91.064163
2.3222229999999993 -32.971703000000005 89.43852199999999
-1.7593230000000002 -49.465804999999996 90.17405699999999
-8.535796999999999 -42.438103000000005 88.27621500000001
1.6849039999999995 -56.715225 89.283913
-8.535796999999999 -55.825615 86.63243100000001
2.3222229999999993 -65.29205300000001 85.470039
29.032784 -65.182983 80.542679
22.125227000000002 -73.956284 72.68341099999999
10.0 -72.07911700000001 79.695908
36.916426 -48.534214 82.586929
39.272898 -58.583831999999994 74.570938
29.032784 -31.885508 84.63110400000001
39.272898 -36.843933 77.24026500000001
10.0 -24.989314999999998 85.47784399999999
22.125227000000002 -21.471478 79.127747
-9.032784 -31.885506 84.63110400000001
-2.1252270000000006 -21.471478 79.127747
-16.916426 -48.534214 82.586929
-19.272897999999998 -36.843933 77.24026500000001
-9.032784 -65.182983 80.542679
-19.272897999999998 -58.583828000000004 74.570938
-2.1252270000000006 -73.956284 72.68341099999999
33.232218 -68.758461 65.391357
21.944907999999998 -74.491371 56.129429
10.0 -77.87297099999999 64.274048
42.855331 -46.754093 68.088806
38.837582 -57.633114 58.166022999999996
33.232216 -24.749779 70.786224
38.83758400000001 -33.791992 61.046195999999995
10.0 -15.635285999999999 71.90355699999999
21.944907999999998 -16.933854999999998 63.082802
-13.232218 -24.749779 70.786224
-1.9449079999999999 -16.933857 63.082802
-22.855331 -46.754096999999994 68.088806
-18.837582 -33.791992 61.046195999999995
-13.232216000000001 -68.758461 65.391357
-18.837584000000003 -57.633114 58.166022999999996
-1.9449079999999999 -74.491371 56.129429
29.973093 -64.903244 48.644844
19.315371 -66.34375 40.872395000000004
10.0 -73.291801 47.674690000000005
38.24625 -44.651489 50.986954
32.489335999999994 -53.068253000000006 42.285247999999996
29.973095 -24.399834 53.329063
32.489335999999994 -34.293919 44.283264
10.0 -16.011395999999998 54.29919399999999
19.315371 -21.018566 45.696053000000006
-9.973092999999999 -24.399834 53.32906
0.6846289999999993 -21.018564 45.696053000000006
-18.24625 -44.651489 50.986958
-12.489335999999998 -34.293919 44.283264
-9.973095 -64.90323599999999 48.644844
-12.489335999999998 -53.068249 42.285247999999996
0.6846289999999993 -66.34375 40.872395000000004
24.30225 -57.238625 36.04538
16.089 -56.943451 31.453499
10.0 -63.181362 35.497894
30.226485999999998 -42.891566999999995 37.367123
24.700201 -48.310699 32.053799
24.30225 -28.544621000000003 38.688805
24.700201 -36.1022 32.902747999999995
10.0 -22.601986 39.236252
16.089 -27.469601 33.502998
-4.302250000000001 -28.544621000000003 38.688805
3.9109999999999996 -27.469601 33.502998
-10.226485999999998 -42.891566999999995 37.367123
-4.700201000000002 -36.1022 32.902747999999995
-4.302250000000001 -57.238625 36.04538
-4.700201000000002 -48.310699 32.053799
3.9109999999999996 -56.943451 31.453499
10.0 -49.619499 91.425529
10.0 -66.397354 85.37931800000001
23.998837 -61.342009999999995 86.000076
29.797348 -49.137291 87.498657
23.998837 -36.932644 88.997192
10.0 -31.877264 89.61790500000001
-3.998837 -36.932644 88.997192
-9.797348 -49.137291 87.498665
-3.998837 -61.342003000000005 86.000076
10.0 -76.16555 72.412155
32.441647 -67.832245 73.435364
41.737291 -47.713871000000005 75.905609
32.441648 -27.595540999999997 78.375809
10.0 -19.262192000000002 79.399017
-12.441647 -27.595540999999997 78.375801
-21.737291 -47.713875 75.905609
-12.441648 -67.832245 73.435356
10.0 -76.914169 55.836739
32.107914 -67.775421 56.940765
41.26533499999999 -45.712540000000004 59.60611
32.107914 -23.649744000000002 62.271460999999995
10.0 -14.511089000000002 63.375488
-12.107914000000001 -23.649744000000002 62.271460999999995
-21.265334999999997 -45.712543 59.60611
-12.107914000000001 -67.775421 56.940765
10.0 -68.25164000000001 40.669342
27.241112 -61.055083999999994 41.435249
34.382654 -43.681067999999996 43.284264
27.241112 -26.307147999999998 45.133232
10.0 -19.110706 45.899094
-7.241112000000001 -26.307147999999998 45.133232
-14.382654000000002 -43.681072 43.284264
-7.241112000000001 -61.055083999999994 41.435249
10.0 -59.471901 31.2777
22.178 -54.415001000000004 31.629299
27.222401 -42.206402000000004 32.478297999999995
22.178 -29.997999 33.327202
10.0 -24.9412 33.678799
-2.178000000000001 -29.997999 33.327202
-7.222401000000001 -42.206402000000004 32.478297999999995
-2.178000000000001 -54.415001000000004 31.629299
13.245592 34.805618 12.994253
19.205272 34.805618 11.021955
22.111745 33.07312 14.47272
14.244443 33.07312 17.076328
23.795218 34.805618 7.354736
26.263783 34.805618 2.593131
31.373028 33.07312 3.391175
28.11429 33.07312 9.676894
26.263783 34.805618 -2.593131
23.795218 34.805618 -7.354736
28.11429 33.07312 -9.676894
31.373028 33.07312 -3.391175
19.205272 34.805618 -11.021955
13.245592 34.805618 -12.994253
14.244443 33.07312 -17.076328
22.111745 33.07312 -14.47272
6.754408 34.805618 -12.994253
0.7947279999999992 34.805618 -11.021955
-2.111744999999999 33.07312 -14.47272
5.7555559999999995 33.07312 -17.076328
-3.7952179999999984 34.805618 -7.354736
-6.263783 34.805618 -2.593131
-11.373028000000001 33.07312 -3.391175
-8.11429 33.07312 -9.676894
-6.263783 34.805618 2.593131
-3.7952179999999984 34.805618 7.354736
-8.11429 33.07312 9.676894
-11.373028000000001 33.07312 3.391175
0.7947279999999992 34.805618 11.021955
6.754408 34.805618 12.994253
5.7555559999999995 33.07312 17.076328
-2.111744999999999 33.07312 14.47272
15.147494 30.787243 20.709469
24.688650000000003 30.787243 17.551916000000002
27.107315 27.788818 20.442032
15.995091 27.788818 24.119511
31.968313000000002 30.787243 11.735733
35.920399 30.787243 4.112675
40.18853 27.788818 4.789872
35.585672 27.788818 13.66815
35.920399 30.787243 -4.112675
31.968313000000002 30.787243 -11.735733
35.585674 27.788818 -13.66815
40.18853 27.788818 -4.789872
24.688650000000003 30.787243 -17.551916000000002
15.147494 30.787243 -20.709469
15.995091 27.788818 -24.119511
27.107317000000002 27.788818 -20.442032
4.852506 30.787243 -20.709469
-4.688650000000001 30.787243 -17.551916000000002
-7.107315 27.788818 -20.442032
4.00491 27.788818 -24.119511
-11.968313000000002 30.787243 -11.735733
-15.920399 30.787243 -4.112675
-20.18853 27.788818 -4.789872
-15.585671999999999 27.788818 -13.66815
-15.920399 30.787243 4.112675
-11.968313000000002 30.787243 11.735733
-15.585673999999997 27.788818 13.66815
-20.18853 27.788818 4.789872
-4.688650000000001 30.787243 17.551916000000002
4.852506 30.787243 20.709469
4.00491 27.788818 24.119511
-7.107317000000002 27.788818 20.442032
21.38518 -61.583293999999995 36.990372
42.488215999999994 -61.583293999999995 31.350451
42.011936 -66.05291 29.479046000000004
21.218271 -66.05291700000001 34.782307
58.589294 -61.583293999999995 20.961821
67.33045999999999 -61.583293999999995 7.345866
66.48996700000001 -66.05291 6.907367
57.876961 -66.05291 19.710545
67.33045999999999 -61.583293999999995 -7.345864999999999
58.589294 -61.583293999999995 -20.961821
57.876961 -66.05291 -19.710545
66.48996700000001 -66.05291 -6.907367
42.488215999999994 -61.583293999999995 -31.350451
21.38518 -61.583293999999995 -36.990372
21.218271 -66.05291 -34.782307
42.011936 -66.05291 -29.479046000000004
-1.38518 -61.583293999999995 -36.990372
-22.488215999999994 -61.583293999999995 -31.350451
-22.011936 -66.05291 -29.479046000000004
-1.2182710000000014 -66.05291 -34.782307
-38.589294 -61.583293999999995 -20.961821
-47.330459999999995 -61.583293999999995 -7.345866
-46.48996700000001 -66.05291 -6.907367
-37.876961 -66.05291 -19.710545
-47.330459999999995 -61.583293999999995 7.345864999999999
-38.589294 -61.583293999999995 20.961821
-37.876961 -66.05291 19.710545
-46.48996700000001 -66.05291 6.907367
-22.488215999999994 -61.583293999999995 31.350451
-1.38518 -61.583293999999995 36.990372
-1.2182710000000014 -66.05291700000001 34.782307
-22.011936 -66.05291 29.479046000000004
20.927921 -70.01816600000001 32.275467
41.183407 -70.018158 27.354421999999996
39.980331 -73.58744 24.960222
20.506315 -73.58744 29.450553999999997
56.637809999999995 -70.018158 18.289957
65.027893 -70.018158 6.409536
62.904892000000004 -73.58744 5.848541
54.838501 -73.58744 16.689125
65.027893 -70.018158 -6.409536
56.637809999999995 -70.018158 -18.289957
54.838501 -73.58744 -16.689125
62.904892000000004 -73.58744 -5.848541
41.183407 -70.018158 -27.354421999999996
20.927921 -70.018158 -32.275467
20.506315 -73.58744 -29.450553999999997
39.980331 -73.58744 -24.960222
-0.9279210000000013 -70.018158 -32.275467
-21.183407 -70.018158 -27.354421999999996
-19.980331 -73.58744 -24.960222
-0.506314999999999 -73.58744 -29.450553999999997
-36.637809999999995 -70.018158 -18.289957
-45.027893000000006 -70.018158 -6.409536
-42.904892000000004 -73.58744 -5.848541
-34.838501 -73.58744 -16.689125
-45.027893000000006 -70.018158 6.409536
-36.637809999999995 -70.018158 18.289957
-34.838501 -73.58744 16.689125
-42.904892000000004 -73.58744 5.848541
-21.183407 -70.018158 27.354421999999996
-0.9279210000000013 -70.01816600000001 32.275467
-0.506314999999999 -73.58744 29.450553999999997
-19.980331 -73.58744 24.960222
19.969816 -76.622314 26.506646999999997
38.4494 -76.622314 22.465176
36.648882 -79.007286 20.075317000000002
19.338842 -79.007286 23.686852
52.548843 -76.622314 15.020866
60.203331 -76.622314 5.263916
57.026031 -79.007286 4.703938
49.855988 -79.007286 13.422938
60.203331 -76.622314 -5.263916
52.548843 -76.622314 -15.020866
49.855988 -79.007286 -13.422938
57.026031 -79.007286 -4.703938
38.4494 -76.622314 -22.465176
19.969816 -76.622314 -26.506646999999997
19.338842 -79.007286 -23.686852
36.648882 -79.007286 -20.075317000000002
0.03018400000000021 -76.622314 -26.506646999999997
-18.4494 -76.622314 -22.465176
-16.648882 -79.007286 -20.075317000000002
0.6611580000000004 -79.007286 -23.686852
-32.548843 -76.622314 -15.020866
-40.203331 -76.622314 -5.263916
-37.026031 -79.007286 -4.703938
-29.855988000000004 -79.007286 -13.422938
-40.203331 -76.622314 5.263916
-32.548843 -76.622314 15.020866
-29.855988000000004 -79.007286 13.422938
-37.026031 -79.007286 4.703938
-18.4494 -76.622314 22.465176
0.03018400000000021 -76.622314 26.506646999999997
0.6611580000000004 -79.007286 23.686852
-16.648882 -79.007286 20.075317000000002
18.637874 -80.649788 21.27829
34.648628 -80.649788 18.033989000000002
31.74543 -81.594009 15.817425
17.675335 -81.594009 18.645167999999998
46.86441 -80.649788 12.058048
53.496265 -80.649788 4.225625
48.427979 -81.594009 3.724049
42.599976 -81.594009 10.550819
53.496265 -80.649788 -4.225625
46.86441 -80.649788 -12.058048
42.599976 -81.594009 -10.550819
48.427979 -81.594009 -3.724049
34.648628 -80.649788 -18.033989000000002
18.637874 -80.649788 -21.27829
17.675335 -81.594009 -18.645167999999998
31.74543 -81.594009 -15.817425
1.362126 -80.649788 -21.27829
-14.648627999999999 -80.649788 -18.033989000000002
-11.745429999999999 -81.594009 -15.817425
2.3246649999999995 -81.594009 -18.645167999999998
-26.86441 -80.649788 -12.058048
-33.496265 -80.649788 -4.225625
-28.427979 -81.594009 -3.724049
-22.599975999999998 -81.594009 -10.550819
-33.496265 -80.649788 4.225625
-26.86441 -80.649788 12.058048
-22.599975999999998 -81.594009 10.550819
-28.427979 -81.594009 3.724049
-14.648627999999999 -80.649788 18.033989000000002
1.362126 -80.649788 21.27829
2.3246649999999995 -81.594009 18.645167999999998
-11.745429999999999 -81.594009 15.817425
16.043602 -82.020882 14.228792000000002
26.463005 -82.020882 12.134748
16.521227 -82.127602 7.638761
35.009935 -82.020882 7.9877970000000005
39.325779 -82.020882 2.9323349999999997
25.743623 -82.127602 3.1640770000000003
39.325779 -82.020882 -2.9323349999999997
35.009935 -82.020882 -7.9877970000000005
25.743623 -82.127602 -3.1640770000000003
26.463005 -82.020882 -12.134748
16.043602 -82.020882 -14.228792000000002
16.521227 -82.127602 -7.638761
3.956398 -82.020882 -14.228792000000002
-6.463004999999999 -82.020882 -12.134748
3.4787730000000003 -82.127602 -7.638761
-15.009935000000002 -82.020882 -7.9877970000000005
-19.325778999999997 -82.020882 -2.9323349999999997
-5.743623000000001 -82.127602 -3.1640770000000003
-19.325778999999997 -82.020882 2.9323349999999997
-15.009935000000002 -82.020882 7.9877970000000005
-5.743623000000001 -82.127602 3.1640770000000003
-6.463004999999999 -82.020882 12.134748
3.956398 -82.020882 14.228792000000002
3.4787730000000003 -82.127602 7.638761
42.716927 -49.500183 34.826698
42.703537 -56.25407 33.170066999999996
21.460636 -56.25407 39.137337
21.465328 -49.500183 41.091991
67.73407 -49.500183 8.1604
67.710442 -56.25407 7.772228
58.911331 -56.25407 22.178469
58.931358 -49.500183 23.286139000000002
58.931358 -49.500183 -23.286139000000002
58.911331 -56.25407 -22.178469
67.710442 -56.25407 -7.772228
67.73407 -49.500183 -8.1604
21.465328 -49.500183 -41.091991
21.460636 -56.25407 -39.137337
42.703537 -56.25407 -33.170066999999996
42.716927 -49.500183 -34.826698
-22.716927 -49.500183 -34.826691
-22.703536999999997 -56.25407 -33.170066999999996
-1.460636000000001 -56.25407 -39.137337
-1.4653279999999995 -49.500183 -41.091991
-47.734069999999996 -49.500183 -8.160397999999999
-47.71044200000001 -56.25407 -7.772228
-38.911331 -56.25407 -22.178469
-38.931358 -49.500183 -23.286135
-38.931358 -49.500183 23.286135
-38.911331 -56.25407 22.178469
-47.71044200000001 -56.25407 7.772228
-47.734069999999996 -49.500183 8.160397999999999
-1.4653279999999995 -49.500183 41.091991
-1.460636000000001 -56.25407 39.137337
-22.703536999999997 -56.25407 33.170066999999996
-22.716927 -49.500183 34.826691
21.286063 -29.79215 42.790306
42.205379 -29.79215 36.266102000000004
42.555164000000005 -40.546757 35.896503
21.408641000000003 -40.546757 42.354240000000004
58.166278999999996 -29.79215 24.248589000000003
66.83133699999999 -29.79215 8.497684
67.448601 -40.546757 8.411076
58.689423 -40.546757 24.00145
66.83133699999999 -29.79215 -8.497684
58.166278999999996 -29.79215 -24.248589000000003
58.689423 -40.546757 -24.00145
67.448601 -40.546757 -8.411076
42.205379 -29.79215 -36.266102000000004
21.286063 -29.79215 -42.790306
21.408641000000003 -40.546757 -42.354240000000004
42.555164000000005 -40.546757 -35.896503
-1.2860619999999994 -29.79215 -42.790290999999996
-22.205379 -29.79215 -36.266064
-22.555164000000005 -40.546757 -35.896481
-1.4086410000000011 -40.546757 -42.354233
-38.166278999999996 -29.79215 -24.24855
-46.831337 -29.79215 -8.497669
-47.448601000000004 -40.546757 -8.411067
-38.689423 -40.546757 -24.001431
-46.831337 -29.79215 8.497669
-38.166278999999996 -29.79215 24.24855
-38.689423 -40.546757 24.001431
-47.448601000000004 -40.546757 8.411067
-22.205379 -29.79215 36.266064
-1.2860619999999994 -29.79215 42.790290999999996
-1.4086410000000011 -40.546757 42.354233
-22.555164000000005 -40.546757 35.896481
20.722053000000002 -8.3334 41.789055
40.595951 -8.3334 35.4175
41.615053 -18.807949 36.132571999999996
21.079188000000002 -18.807949 42.632748
55.759232 -8.3334 23.681181
63.99128 -8.3334 8.298841
65.78961899999999 -18.807949 8.466396000000001
57.283386 -18.807949 24.159307000000002
63.99128 -8.3334 -8.298841
55.759232 -8.3334 -23.681181
57.283386 -18.807949 -24.159307000000002
65.78961899999999 -18.807949 -8.466396000000001
40.595951 -8.3334 -35.4175
20.722053000000002 -8.3334 -41.789055
21.079188000000002 -18.807949 -42.632748
41.615053 -18.807949 -36.132571999999996
-0.7220519999999997 -8.3334 -41.789047
-20.595951 -8.3334 -35.41748
-21.615053000000003 -18.807949 -36.132529999999996
-1.0791869999999992 -18.807949 -42.632732
-35.759232 -8.3334 -23.681162
-43.99128 -8.3334 -8.298834
-45.789618999999995 -18.807949 -8.466382000000001
-37.283386 -18.807949 -24.159271
-43.99128 -8.3334 8.298834
-35.759232 -8.3334 23.681162
-37.283386 -18.807949 24.159269000000002
-45.789618999999995 -18.807949 8.466382000000001
-20.595951 -8.3334 35.41748
-0.7220519999999997 -8.3334 41.789047
-1.0791869999999992 -18.807949 42.632732
-21.615053000000003 -18.807949 36.132529999999996
18.118133 18.356945 32.595001
16.984478 23.787193 28.100022999999997
29.930585999999998 23.787193 23.815639
33.165529 18.356945 27.625271
19.203764 10.937869000000001 36.698853
36.263435 10.937869000000001 31.103405
38.824127000000004 1.7246 33.766998
20.101133 1.7246 39.841637
44.646316999999996 18.356945 18.471079
39.808149 23.787193 15.923846
45.170624 23.787193 5.580359
50.879166 18.356945 6.473012000000001
49.279533 10.937869000000001 20.796656
56.345898 10.937869000000001 7.287986999999999
60.864635 1.7246 7.912103
53.109299 1.7246 22.577606
50.879166 18.356945 -6.473012000000001
45.170624 23.787193 -5.580359
39.808149 23.787193 -15.923846
44.646316999999996 18.356945 -18.471079
56.345898 10.937869000000001 -7.287988
49.279533 10.937869000000001 -20.796656
53.109299 1.7246 -22.577606
60.864635 1.7246 -7.912103
33.165529 18.356945 -27.625271
29.930585999999998 23.787193 -23.815639
16.984478 23.787193 -28.100022999999997
18.118133 18.356945 -32.595001
36.263435 10.937869000000001 -31.103405
19.203764 10.937869000000001 -36.698853
20.101133 1.7246 -39.841637
38.824127000000004 1.7246 -33.766998
1.8818660000000005 18.356945 -32.595001
3.015522 23.787193 -28.100022999999997
-9.930585999999998 23.787193 -23.815639
-13.165529 18.356945 -27.625271
0.7962350000000011 10.937869000000001 -36.698853
-16.263434999999998 10.937869000000001 -31.103405
-18.824127 1.7246 -33.766994
-0.1011330000000008 1.7246 -39.841637
-24.646316999999996 18.356945 -18.471079
-19.808149 23.787193 -15.923846
-25.170623999999997 23.787193 -5.580359
-30.879165999999998 18.356945 -6.473012000000001
-29.279533 10.937869000000001 -20.796656
-36.345898 10.937869000000001 -7.287986999999999
-40.864635 1.7246 -7.912102
-33.109299 1.7246 -22.577602
-30.879165999999998 18.356945 6.473012000000001
-25.170623999999997 23.787193 5.580359
-19.808149 23.787193 15.923846
-24.646316999999996 18.356945 18.471079
-36.345898 10.937869000000001 7.287988
-29.279533 10.937869000000001 20.796656
-33.109299 1.7246 22.577602
-40.864635 1.7246 7.912102
-13.165529 18.356945 27.625271
-9.930585999999998 23.787193 23.815639
3.015522 23.787193 28.100022999999997
1.8818660000000005 18.356945 32.595001
-16.263434999999998 10.937869000000001 31.103405
0.7962350000000011 10.937869000000001 36.698853
-0.1011330000000008 1.7246 39.841637
-18.824127 1.7246 33.766994
12.340831 36.700245 4.515192
16.189415 36.012436 7.507217
12.267483 36.012436 8.80514
15.651252 36.700245 1.8702599999999998
21.020604 36.012436 1.8116560000000002
19.396104 36.012436 4.945168
15.651252 36.700245 -1.8702599999999998
19.396104 36.012436 -4.945168
21.020604 36.012436 -1.8116560000000002
12.340831 36.700245 -4.515192
12.267483 36.012436 -8.80514
16.189415 36.012436 -7.507217
7.659169 36.700245 -4.515192
3.8105849999999997 36.012436 -7.507217
7.732517 36.012436 -8.80514
4.3487480000000005 36.700245 -1.8702599999999998
-1.0206039999999987 36.012436 -1.8116560000000002
0.6038960000000007 36.012436 -4.945168
4.3487480000000005 36.700245 1.8702599999999998
0.6038960000000007 36.012436 4.945168
-1.0206039999999987 36.012436 1.8116560000000002
7.659169 36.700245 4.515192
7.732517 36.012436 8.80514
3.8105849999999997 36.012436 7.507217
12.74666 35.473007 10.891707
16.358307 34.800789 12.264403
13.749709 34.006809000000004 15.070039000000001
10.0 34.810444 13.231029000000001
21.709803 34.810444 9.355777999999999
20.685943 34.006809000000004 12.774559
17.697255 35.473007 9.253359
23.455154999999998 32.001083 16.07799
18.333489999999998 33.07312 16.074265
25.423810000000003 33.07312 12.323122
10.0 33.07312 17.42749
14.715228 32.001083 18.970385
21.581602 35.473007 6.149883999999999
25.350285999999997 34.800789 5.0800980000000004
25.988822 34.006809000000004 8.537736
26.560137 34.810444 0.0
28.861893 34.006809000000004 2.995902
23.632188 35.473007 2.194503
33.743694000000005 32.001083 3.7673129999999997
30.118818 33.07312 6.658192
31.812553 33.07312 0.0
30.123497 32.001083 10.750223
23.632188 35.473007 -2.194503
25.350285999999997 34.800789 -5.0800980000000004
28.861893 34.006809000000004 -2.995902
21.709803 34.810444 -9.355777999999999
25.988822 34.006809000000004 -8.537736
21.581602 35.473007 -6.149883999999999
30.123497 32.001083 -10.750223
30.118818 33.07312 -6.658192
25.423810000000003 33.07312 -12.323122
33.743694000000005 32.001083 -3.7673129999999997
17.697255 35.473007 -9.253359
16.358307 34.800789 -12.264403
20.685943 34.006809000000004 -12.774559
10.0 34.810444 -13.231029000000001
13.749709 34.006809000000004 -15.070039000000001
12.74666 35.473007 -10.891707
14.715228 32.001083 -18.970385
18.333489999999998 33.07312 -16.074265
10.0 33.07312 -17.42749
23.455154999999998 32.001083 -16.07799
7.25334 35.473007 -10.891707
3.641693 34.800789 -12.264403
6.250291000000001 34.006809000000004 -15.070039000000001
-1.709802999999999 34.810444 -9.355777999999999
-0.685943 34.006809000000004 -12.774559
2.302745 35.473007 -9.253359
-3.4551549999999995 32.001083 -16.07799
1.6665100000000006 33.07312 -16.074265
-5.423810000000001 33.07312 -12.323122
5.284772 32.001083 -18.970385
-1.5816020000000002 35.473007 -6.149883999999999
-5.350285999999999 34.800789 -5.0800980000000004
-5.988822000000001 34.006809000000004 -8.537736
-6.560137000000001 34.810444 0.0
-8.861892999999998 34.006809000000004 -2.995902
-3.632188000000001 35.473007 -2.194503
-13.743694000000001 32.001083 -3.7673129999999997
-10.118818000000001 33.07312 -6.658192
-11.812553000000001 33.07312 -0.0
-10.123497 32.001083 -10.750223
-3.632188000000001 35.473007 2.194503
-5.350285999999999 34.800789 5.0800980000000004
-8.861892999999998 34.006809000000004 2.995902
-1.709802999999999 34.810444 9.355777999999999
-5.988822000000001 34.006809000000004 8.537736
-1.5816020000000002 35.473007 6.149883999999999
-10.123497 32.001083 10.750223
-10.118818000000001 33.07312 6.658192
-5.423810000000001 33.07312 12.323122
-13.743694000000001 32.001083 3.7673129999999997
2.302745 35.473007 9.253359
3.641693 34.800789 12.264403
-0.685943 34.006809000000004 12.774559
6.250291000000001 34.006809000000004 15.070039000000001
7.25334 35.473007 10.891707
5.284772 32.001083 18.970385
1.6665100000000006 33.07312 16.074265
-3.4551549999999995 32.001083 16.07799
20.10653 30.787243 19.494204
15.565895999999999 29.395264 22.39278
10.0 30.787243 21.135345
28.705397 30.787243 14.944970000000001
25.882585999999996 29.395264 18.978573
28.433197 25.931572 22.026363
21.770692 27.788818 22.70414
31.785473 27.788818 17.405823
10.0 27.788818 24.615513
16.459733 25.931572 25.988861
34.399336 30.787243 8.074777000000001
33.753965 29.395264 12.689638
36.453441999999995 30.787243 0.0
38.027294 29.395264 4.446961
42.528255 25.931572 5.161105
38.416998 27.788818 9.404377
40.809345 27.788818 0.0
37.568661 25.931572 14.727482
34.399336 30.787243 -8.074777000000001
38.027294 29.395264 -4.446961
28.705397 30.787243 -14.944970000000001
33.753965 29.395264 -12.689638
37.568661 25.931572 -14.727482
38.417 27.788818 -9.404377
31.785473 27.788818 -17.405823
42.528255 25.931572 -5.161105
20.10653 30.787243 -19.494204
25.882585999999996 29.395264 -18.978573
10.0 30.787243 -21.135345
15.565895999999999 29.395264 -22.39278
16.459733 25.931572 -25.988861
21.770693 27.788818 -22.70414
10.0 27.788818 -24.615513
28.433199 25.931572 -22.026363
-0.10653000000000112 30.787243 -19.494204
4.4341040000000005 29.395264 -22.39278
-8.705397000000001 30.787243 -14.944970000000001
-5.882585999999998 29.395264 -18.978573
-8.433197 25.931572 -22.026363
-1.7706920000000004 27.788818 -22.70414
-11.785473 27.788818 -17.405823
3.540267 25.931572 -25.988861
-14.399335999999998 30.787243 -8.074777000000001
-13.753965 29.395264 -12.689638
-16.453442 30.787243 -0.0
-18.027294 29.395264 -4.446961
-22.528255 25.931572 -5.161105
-18.416998 27.788818 -9.404377
-20.809345 27.788818 0.0
-17.568661 25.931572 -14.727482
-14.399335999999998 30.787243 8.074777000000001
-18.027294 29.395264 4.446961
-8.705397000000001 30.787243 14.944970000000001
-13.753965 29.395264 12.689638
-17.568661 25.931572 14.727482
-18.417 27.788818 9.404377
-11.785473 27.788818 17.405823
-22.528255 25.931572 5.161105
-0.10653000000000112 30.787243 19.494204
-5.882585999999998 29.395264 18.978573
4.4341040000000005 29.395264 22.39278
3.540267 25.931572 25.988861
-1.7706929999999996 27.788818 22.70414
-8.433198999999998 25.931572 22.026363
21.43234 -59.048336 38.056637
32.353529 -61.583293999999995 34.819702
21.315157 -63.903355000000005 35.908833
10.0 -61.583293999999995 37.751059999999995
51.372414 -61.583293999999995 26.694022999999998
42.288403 -63.903351 30.433811
42.622791 -59.048336 32.254143
41.647408 -68.076378 28.460976000000002
32.025824 -66.05291700000001 32.741207
50.765888000000004 -66.05291 25.100573999999998
10.0 -66.05291700000001 35.497589000000005
21.090527 -68.076385 33.581089
58.790565 -59.048336 21.566055
63.966193999999994 -61.583293999999995 14.422787
58.290447 -63.903351 20.348928
68.509434 -61.583293999999995 0.0
66.977844 -63.903351 7.131083
67.567947 -59.048336 7.557614
65.846695 -68.076378 6.668817999999999
63.175026 -66.05291 13.561845000000002
67.651657 -66.05291 0.0
57.331768 -68.076378 19.029831
67.567947 -59.048336 -7.557614
63.966193999999994 -61.583293999999995 -14.422787
66.977844 -63.903351 -7.131083
51.372414 -61.583293999999995 -26.694022999999998
58.290447 -63.903351 -20.348928
58.790565 -59.048336 -21.566055
57.331768 -68.076378 -19.029831
63.175026 -66.05291 -13.561845000000002
50.765888000000004 -66.05291 -25.100573999999998
65.846695 -68.076378 -6.668817999999999
42.622791 -59.048336 -32.254143
32.353529 -61.583293999999995 -34.819702
42.288403 -63.903351 -30.433811
10.0 -61.583293999999995 -37.751059999999995
21.315157 -63.903351 -35.908833
21.43234 -59.048336 -38.056637
21.090527 -68.076378 -33.581089
32.025824 -66.05291 -32.741207
10.0 -66.05291 -35.497589000000005
41.647408 -68.076378 -28.460976000000002
-1.43234 -59.048336 -38.056637
-12.353529000000002 -61.583293999999995 -34.819702
-1.315157000000001 -63.903351 -35.908833
-31.372414 -61.583293999999995 -26.694022999999998
-22.288403000000002 -63.903351 -30.433811
-22.622791 -59.048336 -32.254143
-21.647408000000002 -68.076378 -28.460976000000002
-12.025824 -66.05291 -32.741207
-30.765888000000004 -66.05291 -25.100573999999998
-1.0905269999999998 -68.076378 -33.581089
-38.790565 -59.048336 -21.566055
-43.966193999999994 -61.583293999999995 -14.422787
-38.290447 -63.903351 -20.348928
-48.509434 -61.583293999999995 -0.0
-46.977844 -63.903351 -7.131083
-47.567947 -59.048336 -7.557614
-45.846695 -68.076378 -6.668817999999999
-43.175026 -66.05291 -13.561845000000002
-47.65165699999999 -66.05291 -0.0
-37.331768 -68.076378 -19.029831
-47.567947 -59.048336 7.557614
-43.966193999999994 -61.583293999999995 14.422787
-46.977844 -63.903351 7.131083
-31.372414 -61.583293999999995 26.694022999999998
-38.290447 -63.903351 20.348928
-38.790565 -59.048336 21.566055
-37.331768 -68.076378 19.029831
-43.175026 -66.05291 13.561845000000002
-30.765888000000004 -66.05291 25.100573999999998
-45.846695 -68.076378 6.668817999999999
-22.622791 -59.048336 32.254143
-12.353529000000002 -61.583293999999995 34.819702
-22.288403000000002 -63.903351 30.433811
-1.315157000000001 -63.903355000000005 35.908833
-1.43234 -59.048336 38.056637
-1.0905269999999998 -68.076385 33.581089
-12.025824 -66.05291700000001 32.741207
-21.647408000000002 -68.076378 28.460976000000002
31.455753 -70.018158 30.381474
20.732503 -71.860947 30.890327000000003
10.0 -70.01816600000001 32.939201000000004
49.710789 -70.018158 23.291515
40.625769000000005 -71.860947 26.180473000000003
39.25293 -75.180328 23.714760000000002
30.627976999999998 -73.58744 27.722332
48.178722 -73.58744 21.252922
10.0 -73.58744 30.056192
20.251405 -75.180328 27.981031
61.798752 -70.018158 12.58441
55.80381 -71.860947 17.505020000000002
66.159515 -70.018158 0.0
64.04386099999999 -71.860947 6.134462999999999
61.621284 -75.180328 5.556711
59.800331 -73.58744 11.482957
63.992855000000006 -73.58744 -0.0
53.750603000000005 -75.180328 15.856373999999999
61.798752 -70.018158 -12.58441
64.04386099999999 -71.860947 -6.134462999999999
49.710789 -70.018158 -23.291515
55.80381 -71.860947 -17.505020000000002
53.750603000000005 -75.180328 -15.856373999999999
59.800331 -73.58744 -11.482957
48.178722 -73.58744 -21.252922
61.621284 -75.180328 -5.556711
31.455753 -70.018158 -30.381474
40.625769000000005 -71.860947 -26.180473000000003
10.0 -70.018158 -32.939201000000004
20.732503 -71.860947 -30.890327000000003
20.251405 -75.180328 -27.981031
30.627976999999998 -73.58744 -27.722332
10.0 -73.58744 -30.056192
39.25293 -75.180328 -23.714760000000002
-11.455753000000001 -70.018158 -30.381474
-0.7325029999999995 -71.860947 -30.890327000000003
-29.710789 -70.018158 -23.291515
-20.625769000000002 -71.860947 -26.180473000000003
-19.25293 -75.180328 -23.714760000000002
-10.627976999999998 -73.58744 -27.722332
-28.178722 -73.58744 -21.252922
-0.2514050000000001 -75.180328 -27.981031
-41.798752 -70.018158 -12.58441
-35.80381 -71.860947 -17.505020000000002
-46.159515 -70.018158 -0.0
-44.043861 -71.860947 -6.134462999999999
-41.621284 -75.180328 -5.556711
-39.800331 -73.58744 -11.482957
-43.992855000000006 -73.58744 0.0
-33.750603000000005 -75.180328 -15.856373999999999
-41.798752 -70.018158 12.58441
-44.043861 -71.860947 6.134462999999999
-29.710789 -70.018158 23.291515
-35.80381 -71.860947 17.505020000000002
-33.750603000000005 -75.180328 15.856373999999999
-39.800331 -73.58744 11.482957
-28.178722 -73.58744 21.252922
-41.621284 -75.180328 5.556711
-11.455753000000001 -70.018158 30.381474
-20.625769000000002 -71.860947 26.180473000000003
-0.7325029999999995 -71.860947 30.890327000000003
-0.2514050000000001 -75.180328 27.981031
-10.627976999999998 -73.58744 27.722332
-19.25293 -75.180328 23.714760000000002
29.574619000000002 -76.622314 24.951181
19.664608 -77.901825 25.06329
10.0 -76.622314 27.051746
46.229145 -76.622314 19.128462
37.578474 -77.901825 21.241889999999998
35.669357000000005 -79.927132 18.995878
28.335773 -79.007286 22.296858
43.936256 -79.007286 17.093564999999998
10.0 -79.007286 24.173962
18.995578000000002 -79.927132 22.413221
57.257301 -76.622314 10.335111
51.246284 -77.901825 14.202942000000002
61.235741 -76.622314 -0.0
58.666443 -77.901825 4.977282
55.297501000000004 -79.927132 4.45101
54.266457 -79.007286 9.235657000000002
57.993095000000004 -79.007286 0.0
48.391009999999994 -79.927132 12.701195
57.257301 -76.622314 -10.335111
58.666443 -77.901825 -4.977282
46.229145 -76.622314 -19.128462
51.246284 -77.901825 -14.202942000000002
48.391009999999994 -79.927132 -12.701195
54.266457 -79.007286 -9.235657000000002
43.936256 -79.007286 -17.093564999999998
55.297501000000004 -79.927132 -4.45101
29.574619000000002 -76.622314 -24.951181
37.578474 -77.901825 -21.241889999999998
10.0 -76.622314 -27.051746
19.664608 -77.901825 -25.06329
18.995578000000002 -79.927132 -22.413221
28.335773 -79.007286 -22.296858
10.0 -79.007286 -24.173962
35.669357000000005 -79.927132 -18.995878
-9.574619000000002 -76.622314 -24.951181
0.3353920000000006 -77.901825 -25.06329
-26.229145000000003 -76.622314 -19.128462
-17.578474 -77.901825 -21.241889999999998
-15.669357000000002 -79.927132 -18.995878
-8.335773 -79.007286 -22.296858
-23.936256 -79.007286 -17.093564999999998
1.004422 -79.927132 -22.413221
-37.257301 -76.622314 -10.335111
-31.246284000000003 -77.901825 -14.202942000000002
-41.235741 -76.622314 0.0
-38.666443 -77.901825 -4.977282
-35.297501000000004 -79.927132 -4.45101
-34.266457 -79.007286 -9.235657000000002
-37.993095000000004 -79.007286 0.0
-28.391009999999994 -79.927132 -12.701195
-37.257301 -76.622314 10.335111
-38.666443 -77.901825 4.977282
-26.229145000000003 -76.622314 19.128462
-31.246284000000003 -77.901825 14.202942000000002
-28.391009999999994 -79.927132 12.701195
-34.266457 -79.007286 9.235657000000002
-23.936256 -79.007286 17.093564999999998
-35.297501000000004 -79.927132 4.45101
-9.574619000000002 -76.622314 24.951181
-17.578474 -77.901825 21.241889999999998
0.3353920000000006 -77.901825 25.06329
1.004422 -79.927132 22.413221
-8.335773 -79.007286 22.296858
-15.669357000000002 -79.927132 18.995878
26.959498999999997 -80.649788 20.029636
18.214776999999998 -81.19787600000001 20.087217000000003
10.0 -80.649788 21.715868
41.389015 -80.649788 15.355432999999998
33.402164 -81.19787600000001 17.02829
29.493887 -81.860809 14.240029999999999
25.030527 -81.594009 17.606302
37.656445000000005 -81.594009 13.418830999999999
10.0 -81.594009 18.977098
16.968595 -81.860809 16.757307
50.943825 -80.649788 8.296543
45.019596 -81.19787600000001 11.379316000000001
54.390743 -80.649788 0.0
51.310398 -81.19787600000001 3.994425
44.537079 -81.860809 3.381139
46.286869 -81.594009 7.2927669999999996
49.112087 -81.594009 0.0
39.348953 -81.860809 9.458373
50.943825 -80.649788 -8.296543
51.310398 -81.19787600000001 -3.994425
41.389015 -80.649788 -15.355432999999998
45.019596 -81.19787600000001 -11.379316000000001
39.348953 -81.860809 -9.458373
46.286869 -81.594009 -7.2927669999999996
37.656445000000005 -81.594009 -13.418830999999999
44.537079 -81.860809 -3.381139
26.959498999999997 -80.649788 -20.029636
33.402164 -81.19787600000001 -17.02829
10.0 -80.649788 -21.715868
18.214776999999998 -81.19787600000001 -20.087217000000003
16.968595 -81.860809 -16.757307
25.030527 -81.594009 -17.606302
10.0 -81.594009 -18.977098
29.493887 -81.860809 -14.240029999999999
-6.959498999999997 -80.649788 -20.029636
1.7852230000000002 -81.19787600000001 -20.087217000000003
-21.389015 -80.649788 -15.355432999999998
-13.402164000000003 -81.19787600000001 -17.02829
-9.493887 -81.860809 -14.240029999999999
-5.030526999999999 -81.594009 -17.606302
-17.656445 -81.594009 -13.418830999999999
3.0314050000000003 -81.860809 -16.757307
-30.943824999999997 -80.649788 -8.296543
-25.019596 -81.19787600000001 -11.379316000000001
-34.390743 -80.649788 0.0
-31.310398 -81.19787600000001 -3.994425
-24.537079 -81.860809 -3.381139
-26.286869000000003 -81.594009 -7.2927669999999996
-29.112087000000002 -81.594009 0.0
-19.348953 -81.860809 -9.458373
-30.943824999999997 -80.649788 8.296543
-31.310398 -81.19787600000001 3.994425
-21.389015 -80.649788 15.355432999999998
-25.019596 -81.19787600000001 11.379316000000001
-19.348953 -81.860809 9.458373
-26.286869000000003 -81.594009 7.2927669999999996
-17.656445 -81.594009 13.418830999999999
-24.537079 -81.860809 3.381139
-6.959498999999997 -80.649788 20.029636
-13.402164000000003 -81.19787600000001 17.02829
1.7852230000000002 -81.19787600000001 20.087217000000003
3.0314050000000003 -81.860809 16.757307
-5.030526999999999 -81.594009 17.606302
-9.493887 -81.860809 14.240029999999999
21.670254 -82.020882 13.670171
15.645949 -82.100922 11.156863000000001
10.0 -82.020882 14.263901999999998
30.78764 -82.020882 10.086098
22.267284 -82.100922 9.826138
10.0 -82.127602 6.57538
19.582698 -82.127602 4.649495
38.174459 -82.020882 5.662368
30.25185 -82.100922 5.952046
39.398135999999994 -82.020882 0.0
32.994488000000004 -82.100922 2.739395
23.551973 -82.127602 0.0
38.174459 -82.020882 -5.662368
32.994488000000004 -82.100922 -2.739395
30.78764 -82.020882 -10.086098
30.25185 -82.100922 -5.952046
19.582698 -82.127602 -4.649495
21.670254 -82.020882 -13.670171
22.267284 -82.100922 -9.826138
10.0 -82.020882 -14.263901999999998
15.645949 -82.100922 -11.156863000000001
10.0 -82.127602 -6.57538
-1.670254 -82.020882 -13.670171
4.354051 -82.100922 -11.156863000000001
-10.78764 -82.020882 -10.086098
-2.267284 -82.100922 -9.826138
0.41730200000000117 -82.127602 -4.649495
-18.174459000000002 -82.020882 -5.662368
-10.251850000000001 -82.100922 -5.952046
-19.398135999999997 -82.020882 0.0
-12.994488 -82.100922 -2.739395
-3.5519739999999995 -82.127602 0.0
-18.174459000000002 -82.020882 5.662368
-12.994488 -82.100922 2.739395
-10.78764 -82.020882 10.086098
-10.251850000000001 -82.100922 5.952046
0.41730200000000117 -82.127602 4.649495
-1.670254 -82.020882 13.670171
-2.267284 -82.100922 9.826138
4.354051 -82.100922 11.156863000000001
51.66367 -49.500183 29.653948
42.733799 -53.103638000000004 34.045246
32.510891 -49.500183 38.68063
42.656265000000005 -45.34684 35.461441
32.501678 -56.25407 36.840675
51.646618 -56.25407 28.243376
10.0 -56.25407 39.942177
21.471241 -53.103638000000004 40.169959999999996
21.444071 -45.34684 41.840923
10.0 -49.500183 41.937031
68.921345 -49.500183 0.0
67.763847 -53.103638000000004 7.9772940000000006
64.346115 -49.500183 16.022033999999998
67.627018 -45.34684 8.309132
64.323875 -56.25407 15.259901999999999
68.897232 -56.25407 0.0
58.956593 -53.103638000000004 22.763638
58.84063 -45.34684 23.71055
51.66367 -49.500183 -29.653948
58.956593 -53.103638000000004 -22.763638
64.346115 -49.500183 -16.022033999999998
58.84063 -45.34684 -23.71055
64.323875 -56.25407 -15.259901999999999
51.646618 -56.25407 -28.243376
67.763847 -53.103638000000004 -7.9772940000000006
67.627018 -45.34684 -8.309132
10.0 -49.500183 -41.937031
21.471241 -53.103638000000004 -40.169959999999996
32.510891 -49.500183 -38.68063
21.444071 -45.34684 -41.840923
32.501678 -56.25407 -36.840675
10.0 -56.25407 -39.942177
42.733799 -53.103638000000004 -34.045246
42.656265000000005 -45.34684 -35.461441
-31.663670000000003 -49.500183 -29.653941999999997
-22.733798999999998 -53.103638000000004 -34.045242
-12.510891 -49.500183 -38.680626000000004
-22.656265000000005 -45.34684 -35.46143
-12.501677999999998 -56.25407 -36.840675
-31.646617999999997 -56.25407 -28.243376
-1.471241000000001 -53.103638000000004 -40.169959999999996
-1.444071000000001 -45.34684 -41.840919
-48.921344999999995 -49.500183 0.0
-47.763847 -53.103638000000004 -7.9772940000000006
-44.346115000000005 -49.500183 -16.022032
-47.62701800000001 -45.34684 -8.309127
-44.323875 -56.25407 -15.259901999999999
-48.897231999999995 -56.25407 -0.0
-38.956593 -53.103638000000004 -22.763635999999998
-38.84063 -45.34684 -23.710541
-31.663670000000003 -49.500183 29.653941999999997
-38.956593 -53.103638000000004 22.763635999999998
-44.346115000000005 -49.500183 16.022032
-38.84063 -45.34684 23.710541
-44.323875 -56.25407 15.259901999999999
-31.646617999999997 -56.25407 28.243376
-47.763847 -53.103638000000004 7.9772940000000006
-47.62701800000001 -45.34684 8.309127
-1.471241000000001 -53.103638000000004 40.169959999999996
-12.510891 -49.500183 38.680626000000004
-1.444071000000001 -45.34684 41.840919
-12.501677999999998 -56.25407 36.840675
-22.733798999999998 -53.103638000000004 34.045242
-22.656265000000005 -45.34684 35.46143
21.194313 -24.230526 42.771194
32.158924 -29.79215 40.279301000000004
21.356738999999997 -35.296378999999995 42.661011
10.0 -29.79215 43.670258000000004
51.012234 -29.79215 30.879578000000002
42.407059000000004 -35.296378999999995 36.156509
41.943567 -24.230526 36.249912
32.399591 -40.546757 39.868813
51.457671999999995 -40.546757 30.564863
10.0 -40.546757 43.225231
57.774712 -24.230526 24.237766
63.496365000000004 -29.79215 16.684254
58.467911 -35.296378999999995 24.175306
68.000046 -29.79215 0.0
67.18723299999999 -35.296378999999995 8.472002
66.369324 -24.230526 8.493893
64.0774 -40.546757 16.514206
68.63000500000001 -40.546757 0.0
66.369324 -24.230526 -8.493893
63.496365000000004 -29.79215 -16.684254
67.18723299999999 -35.296378999999995 -8.472002
51.012234 -29.79215 -30.879578000000002
58.467911 -35.296378999999995 -24.175306
57.774712 -24.230526 -24.237766
64.0774 -40.546757 -16.514206
51.457671999999995 -40.546757 -30.564863
41.943567 -24.230526 -36.249912
32.158924 -29.79215 -40.279301000000004
42.407059000000004 -35.296378999999995 -36.156509
10.0 -29.79215 -43.670258000000004
21.356738999999997 -35.296378999999995 -42.661011
21.194313 -24.230526 -42.771194
32.399591 -40.546757 -39.868813
10.0 -40.546757 -43.225231
-1.194312 -24.230526 -42.771179
-12.158923999999999 -29.79215 -40.279270000000004
-1.356738 -35.296378999999995 -42.660999
-31.012234 -29.79215 -30.879535999999998
-22.407059000000004 -35.296378999999995 -36.156479
-21.943566999999998 -24.230526 -36.24987
-12.399591000000001 -40.546757 -39.868797
-31.457671999999995 -40.546757 -30.564842
-37.774712 -24.230526 -24.237724
-43.496365000000004 -29.79215 -16.684223
-38.467911 -35.296378999999995 -24.175278
-48.000046 -29.79215 0.0
-47.187233 -35.296378999999995 -8.471991000000001
-46.369324 -24.230526 -8.493876
-44.0774 -40.546757 -16.514191
-48.630005000000004 -40.546757 0.0
-46.369324 -24.230526 8.493876
-43.496365000000004 -29.79215 16.684223
-47.187233 -35.296378999999995 8.471991000000001
-31.012234 -29.79215 30.879535999999998
-38.467911 -35.296378999999995 24.175278
-37.774712 -24.230526 24.237724
-44.0774 -40.546757 16.514191
-31.457671999999995 -40.546757 30.564842
-21.943566999999998 -24.230526 36.249866
-12.158923999999999 -29.79215 40.279270000000004
-22.407059000000004 -35.296378999999995 36.156479
-1.356738 -35.296378999999995 42.660999
-1.194312 -24.230526 42.771179
-12.399591000000001 -40.546757 39.868797
20.451661 -3.25815 40.979411999999996
31.051554 -8.3334 39.3368
20.926498 -13.512787 42.322769
10.0 -8.3334 42.648422
48.962692 -8.3334 30.157010999999997
41.179346 -13.512787 35.869846
39.824375 -3.25815 34.731297
31.752748 -18.807949 40.130989
50.260475 -18.807949 30.765881
10.0 -18.807949 43.509457
54.605270000000004 -3.25815 23.222363
60.822959999999995 -8.3334 16.293846
56.631747999999995 -13.512787 23.983639
65.101585 -8.3334 0.0
65.020756 -13.512787 8.404834
62.629726 -3.25815 8.138052
62.515774 -18.807949 16.622822
66.936905 -18.807949 0.0
62.629726 -3.25815 -8.138052
60.822959999999995 -8.3334 -16.293846
65.020756 -13.512787 -8.404834
48.962692 -8.3334 -30.157010999999997
56.631747999999995 -13.512787 -23.983639
54.605270000000004 -3.25815 -23.222363
62.515774 -18.807949 -16.622822
50.260475 -18.807949 -30.765881
39.824375 -3.25815 -34.731297
31.051554 -8.3334 -39.3368
41.179346 -13.512787 -35.869846
10.0 -8.3334 -42.648422
20.926498 -13.512787 -42.322769
20.451661 -3.25815 -40.979411999999996
31.752748 -18.807949 -40.130989
10.0 -18.807949 -43.509457
-0.4516600000000004 -3.25815 -40.979408
-11.051551999999997 -8.3334 -39.336784
-0.9264969999999995 -13.512787 -42.322753999999996
-28.962691999999997 -8.3334 -30.156990000000004
-21.179346000000002 -13.512787 -35.869816
-19.824375 -3.25815 -34.731285
-11.752748 -18.807949 -40.130959000000004
-30.260475 -18.807949 -30.765839
-34.605270000000004 -3.25815 -23.222353
-40.822959999999995 -8.3334 -16.293833
