48.580288 -73.026543 51.947701
44.315878 -68.435898 48.236286
54.503654 -72.714691 47.741432
55.255463 -67.756546 40.722034
49.917446999999996 -68.784065 44.200592
46.461203 -64.08575400000001 41.112705
68.512309 -63.915588 38.065884000000004
63.912794 -62.735401 35.538139
60.0 -65.65394599999999 37.891865
75.754786 -59.096886 38.548256
71.221104 -59.698723 35.817776
69.1335 -55.679226 31.541399
66.890153 -59.218479 33.486858000000005
72.983704 -55.558727000000005 33.790805999999996
60.0 -60.95021800000001 33.348602
63.0445 -58.207676 31.365601
80.550575 -51.819771 39.276718
76.754656 -54.147835 36.329899
82.280676 -43.26675 40.132889
79.781889 -46.816628 37.005005
75.96130099999999 -45.258553000000006 32.266048
76.63435 -49.449898 34.29031
78.361795 -42.542469 34.858437
73.4391 -51.36285 31.841549
80.550575 -34.71376 40.989036999999996
79.781889 -38.966515 37.729237
75.754786 -27.436714000000002 41.717461
76.754656 -31.635371999999997 38.404305
73.4391 -33.050098 33.114975
76.63435 -35.635094 35.426536999999996
72.983704 -29.526344 35.925999
75.96130099999999 -39.154301000000004 32.690521000000004
68.512309 -22.618088 42.199799
71.221104 -26.084557 38.916393
60.0 -20.879766 42.373802000000005
63.912794 -23.047935 39.196007
63.0445 -26.2054 33.590897
66.890153 -25.866654999999998 36.229927
60.0 -24.134956 36.368179
69.1335 -28.733798999999998 33.4151
51.487691 -22.618088 42.199799
56.087206 -23.047935 39.196007
44.245214000000004 -27.436714000000002 41.717461
48.778896 -26.084557 38.916393
50.8665 -28.733798999999998 33.4151
53.109847 -25.866654999999998 36.229927
47.016296 -29.526344 35.925999
56.9555 -26.2054 33.590897
39.449425000000005 -34.71376 40.989036999999996
43.245344 -31.635371999999997 38.404305
37.719324 -43.26675 40.132889
40.21811099999999 -38.966515 37.729237
44.038699 -39.154301000000004 32.690521000000004
43.36565 -35.635094 35.426536999999996
41.638205 -42.542469 34.858437
46.560900000000004 -33.050098 33.114975
39.449425000000005 -51.819771 39.276718
40.21811099999999 -46.816628 37.005005
44.245214000000004 -59.096886 38.548256
43.245344 -54.147835 36.329899
46.560900000000004 -51.36285 31.841549
43.36565 -49.449898 34.29031
47.016296 -55.558727000000005 33.790805999999996
44.038699 -45.258553000000006 32.266048
51.487691 -63.915588 38.065884000000004
48.778896 -59.698723 35.817776
56.087206 -62.735401 35.538139
56.9555 -58.207676 31.365601
53.109847 -59.218479 33.486858000000005
50.8665 -55.679226 31.541399
65.274012 -60.515823 88.397751
72.732594 -54.013142 89.19622
72.732594 -44.817001 90.32537099999999
65.274012 -38.31435 91.123795
54.725988 -38.31435 91.123795
47.267406 -44.816998 90.32537099999999
47.267406 -54.013142 89.19622
54.725988 -60.515823 88.397743
70.294838 -70.274361 79.91301
84.853943 -57.538952 81.476776
84.853943 -39.528412 83.688187
70.294838 -26.793011 85.25187700000001
49.705162 -26.793013000000002 85.25187700000001
35.146057 -39.528412 83.688187
35.146057 -57.538956000000006 81.476768
49.705162 -70.274361 79.91301
72.55237199999999 -75.456604 64.570259
90.304123 -58.643055000000004 66.631378
90.304123 -34.86515 69.546219
72.55237199999999 -18.051655 71.60733
47.447628 -18.051655 71.60733
29.695877000000003 -34.86515 69.546219
29.695877000000003 -58.643055000000004 66.631378
47.447628 -75.456604 64.570267
70.79146399999999 -71.067886 47.931892
86.052929 -55.593513 49.721519
86.052929 -33.709496 52.252396000000005
70.791463 -18.235267999999998 54.042
49.208536 -18.235267999999998 54.042
33.947070999999994 -33.709496 52.252399
33.947070999999994 -55.593509999999995 49.721515999999994
49.208537 -71.067886 47.931892
67.696268 -61.530273 35.648293
78.580482 -50.611969 36.655167
78.58048099999999 -35.171203999999996 38.079056
67.696268 -24.253042 39.085861
52.303732 -24.253044 39.085861
41.419518 -35.171203999999996 38.079056
41.419519 -50.611969 36.655167
52.303732 -61.530273 35.648293
68.315096 -56.715225 89.28392
67.67777699999999 -65.29205300000001 85.470047
60.0 -59.718033 88.915184
71.759323 -49.465804999999996 90.17405699999999
78.535797 -55.825615 86.632423
68.315096 -42.216431 91.064163
78.535797 -42.438103000000005 88.27621500000001
60.0 -39.213615000000004 91.432861
67.67777699999999 -32.971703000000005 89.43852199999999
51.684904 -42.216431 91.064163
52.322223 -32.971703000000005 89.43852199999999
48.240677 -49.465804999999996 90.17405699999999
41.464203 -42.438103000000005 88.27621500000001
51.684904 -56.715225 89.283913
41.464203 -55.825615 86.63243100000001
52.322223 -65.29205300000001 85.470039
79.03278399999999 -65.182983 80.542679
72.125227 -73.956284 72.68341099999999
60.0 -72.07911700000001 79.695908
86.916426 -48.534214 82.586929
89.272898 -58.583831999999994 74.570938
79.03278399999999 -31.885508 84.63110400000001
89.272898 -36.843933 77.24026500000001
60.0 -24.989314999999998 85.47784399999999
72.125227 -21.471478 79.127747
40.967216 -31.885506 84.63110400000001
47.874773 -21.471478 79.127747
33.083574 -48.534214 82.586929
30.727102000000002 -36.843933 77.24026500000001
40.967216 -65.182983 80.542679
30.727102000000002 -58.583828000000004 74.570938
47.874773 -73.956284 72.68341099999999
83.232218 -68.758461 65.391357
71.944908 -74.491371 56.129429
60.0 -77.87297099999999 64.274048
92.855331 -46.754093 68.088806
88.837582 -57.633114 58.166022999999996
83.232216 -24.749779 70.786224
88.837584 -33.791992 61.046195999999995
60.0 -15.635285999999999 71.90355699999999
71.944908 -16.933854999999998 63.082802
36.767782 -24.749779 70.786224
48.055092 -16.933857 63.082802
27.144669 -46.754096999999994 68.088806
31.162418 -33.791992 61.046195999999995
36.767784 -68.758461 65.391357
31.162415999999997 -57.633114 58.166022999999996
48.055092 -74.491371 56.129429
79.973093 -64.903244 48.644844
69.315371 -66.34375 40.872395000000004
60.0 -73.291801 47.674690000000005
88.24625 -44.651489 50.986954
82.489336 -53.068253000000006 42.285247999999996
79.973095 -24.399834 53.329063
82.489336 -34.293919 44.283264
60.0 -16.011395999999998 54.29919399999999
69.315371 -21.018566 45.696053000000006
40.026907 -24.399834 53.32906
50.684629 -21.018564 45.696053000000006
31.75375 -44.651489 50.986958
37.510664000000006 -34.293919 44.283264
40.026905 -64.90323599999999 48.644844
37.510664000000006 -53.068249 42.285247999999996
50.684629 -66.34375 40.872395000000004
74.30225 -57.238625 36.04538
66.089 -56.943451 31.453499
60.0 -63.181362 35.497894
80.226486 -42.891566999999995 37.367123
74.70020099999999 -48.310699 32.053799
74.30225 -28.544621000000003 38.688805
74.70020099999999 -36.1022 32.902747999999995
60.0 -22.601986 39.236252
66.089 -27.469601 33.502998
45.69775 -28.544621000000003 38.688805
53.911 -27.469601 33.502998
39.773514000000006 -42.891566999999995 37.367123
45.299799 -36.1022 32.902747999999995
45.69775 -57.238625 36.04538
45.299799 -48.310699 32.053799
53.911 -56.943451 31.453499
60.0 -49.619499 91.425529
60.0 -66.397354 85.37931800000001
73.99883700000001 -61.342009999999995 86.000076
79.797348 -49.137291 87.498657
73.99883700000001 -36.932644 88.997192
60.0 -31.877264 89.61790500000001
46.001163 -36.932644 88.997192
40.202652 -49.137291 87.498665
46.001163 -61.342003000000005 86.000076
60.0 -76.16555 72.412155
82.441647 -67.832245 73.435364
91.737291 -47.713871000000005 75.905609
82.441648 -27.595540999999997 78.375809
60.0 -19.262192000000002 79.399017
37.558353 -27.595540999999997 78.375801
28.262709 -47.713875 75.905609
37.558352 -67.832245 73.435356
60.0 -76.914169 55.836739
82.107914 -67.775421 56.940765
91.265335 -45.712540000000004 59.60611
82.107914 -23.649744000000002 62.271460999999995
60.0 -14.511089000000002 63.375488
37.892086 -23.649744000000002 62.271460999999995
28.734665000000003 -45.712543 59.60611
37.892086 -67.775421 56.940765
60.0 -68.25164000000001 40.669342
77.241112 -61.055083999999994 41.435249
84.382654 -43.681067999999996 43.284264
77.241112 -26.307147999999998 45.133232
60.0 -19.110706 45.899094
42.758888 -26.307147999999998 45.133232
35.617346 -43.681072 43.284264
42.758888 -61.055083999999994 41.435249
60.0 -59.471901 31.2777
72.178 -54.415001000000004 31.629299
77.222401 -42.206402000000004 32.478297999999995
72.178 -29.997999 33.327202
60.0 -24.9412 33.678799
47.822 -29.997999 33.327202
42.777598999999995 -42.206402000000004 32.478297999999995
47.822 -54.415001000000004 31.629299
63.245592 34.805618 12.994253
69.20527200000001 34.805618 11.021955
72.111745 33.07312 14.47272
64.244443 33.07312 17.076328
73.795218 34.805618 7.354736
76.263783 34.805618 2.593131
81.373028 33.07312 3.391175
78.11429 33.07312 9.676894
76.263783 34.805618 -2.593131
73.795218 34.805618 -7.354736
78.11429 33.07312 -9.676894
81.373028 33.07312 -3.391175
69.20527200000001 34.805618 -11.021955
63.245592 34.805618 -12.994253
64.244443 33.07312 -17.076328
72.111745 33.07312 -14.47272
56.754408 34.805618 -12.994253
50.794728 34.805618 -11.021955
47.888255 33.07312 -14.47272
55.755556 33.07312 -17.076328
46.204782 34.805618 -7.354736
43.736216999999996 34.805618 -2.593131
38.626971999999995 33.07312 -3.391175
41.88571 33.07312 -9.676894
43.736216999999996 34.805618 2.593131
46.204782 34.805618 7.354736
41.88571 33.07312 9.676894
38.626971999999995 33.07312 3.391175
50.794728 34.805618 11.021955
56.754408 34.805618 12.994253
55.755556 33.07312 17.076328
47.888255 33.07312 14.47272
65.147494 30.787243 20.709469
74.68865 30.787243 17.551916000000002
77.107315 27.788818 20.442032
65.995091 27.788818 24.119511
81.968313 30.787243 11.735733
85.920399 30.787243 4.112675
90.18853 27.788818 4.789872
85.585672 27.788818 13.66815
85.920399 30.787243 -4.112675
81.968313 30.787243 -11.735733
85.585674 27.788818 -13.66815
90.18853 27.788818 -4.789872
74.68865 30.787243 -17.551916000000002
65.147494 30.787243 -20.709469
65.995091 27.788818 -24.119511
77.107317 27.788818 -20.442032
54.852506 30.787243 -20.709469
45.31135 30.787243 -17.551916000000002
42.892685 27.788818 -20.442032
54.004909999999995 27.788818 -24.119511
38.031687 30.787243 -11.735733
34.079601 30.787243 -4.112675
29.81147 27.788818 -4.789872
34.414328 27.788818 -13.66815
34.079601 30.787243 4.112675
38.031687 30.787243 11.735733
34.414326 27.788818 13.66815
29.81147 27.788818 4.789872
45.31135 30.787243 17.551916000000002
54.852506 30.787243 20.709469
54.004909999999995 27.788818 24.119511
42.892683 27.788818 20.442032
71.38517999999999 -61.583293999999995 36.990372
92.488216 -61.583293999999995 31.350451
92.01193599999999 -66.05291 29.479046000000004
71.218271 -66.05291700000001 34.782307
108.589294 -61.583293999999995 20.961821
117.33045999999999 -61.583293999999995 7.345866
116.48996700000001 -66.05291 6.907367
107.876961 -66.05291 19.710545
117.33045999999999 -61.583293999999995 -7.345864999999999
108.589294 -61.583293999999995 -20.961821
107.876961 -66.05291 -19.710545
116.48996700000001 -66.05291 -6.907367
92.488216 -61.583293999999995 -31.350451
71.38517999999999 -61.583293999999995 -36.990372
71.218271 -66.05291 -34.782307
92.01193599999999 -66.05291 -29.479046000000004
48.61482 -61.583293999999995 -36.990372
27.511784000000006 -61.583293999999995 -31.350451
27.988064 -66.05291 -29.479046000000004
48.781729 -66.05291 -34.782307
11.410705999999998 -61.583293999999995 -20.961821
2.669540000000005 -61.583293999999995 -7.345866
3.510032999999993 -66.05291 -6.907367
12.123038999999999 -66.05291 -19.710545
2.669540000000005 -61.583293999999995 7.345864999999999
11.410705999999998 -61.583293999999995 20.961821
12.123038999999999 -66.05291 19.710545
3.510032999999993 -66.05291 6.907367
27.511784000000006 -61.583293999999995 31.350451
48.61482 -61.583293999999995 36.990372
48.781729 -66.05291700000001 34.782307
27.988064 -66.05291 29.479046000000004
70.927921 -70.01816600000001 32.275467
91.183407 -70.018158 27.354421999999996
89.980331 -73.58744 24.960222
70.506315 -73.58744 29.450553999999997
106.63781 -70.018158 18.289957
115.027893 -70.018158 6.409536
112.904892 -73.58744 5.848541
104.83850100000001 -73.58744 16.689125
115.027893 -70.018158 -6.409536
106.63781 -70.018158 -18.289957
104.83850100000001 -73.58744 -16.689125
112.904892 -73.58744 -5.848541
91.183407 -70.018158 -27.354421999999996
70.927921 -70.018158 -32.275467
70.506315 -73.58744 -29.450553999999997
89.980331 -73.58744 -24.960222
49.072079 -70.018158 -32.275467
28.816593 -70.018158 -27.354421999999996
30.019669 -73.58744 -24.960222
49.493685 -73.58744 -29.450553999999997
13.362190000000005 -70.018158 -18.289957
4.972106999999994 -70.018158 -6.409536
7.095107999999996 -73.58744 -5.848541
15.161499 -73.58744 -16.689125
4.972106999999994 -70.018158 6.409536
13.362190000000005 -70.018158 18.289957
15.161499 -73.58744 16.689125
7.095107999999996 -73.58744 5.848541
28.816593 -70.018158 27.354421999999996
49.072079 -70.01816600000001 32.275467
49.493685 -73.58744 29.450553999999997
30.019669 -73.58744 24.960222
69.96981600000001 -76.622314 26.506646999999997
88.4494 -76.622314 22.465176
86.648882 -79.007286 20.075317000000002
69.338842 -79.007286 23.686852
102.548843 -76.622314 15.020866
110.20333099999999 -76.622314 5.263916
107.026031 -79.007286 4.703938
99.855988 -79.007286 13.422938
110.20333099999999 -76.622314 -5.263916
102.548843 -76.622314 -15.020866
99.855988 -79.007286 -13.422938
107.026031 -79.007286 -4.703938
88.4494 -76.622314 -22.465176
69.96981600000001 -76.622314 -26.506646999999997
69.338842 -79.007286 -23.686852
86.648882 -79.007286 -20.075317000000002
50.030184 -76.622314 -26.506646999999997
31.5506 -76.622314 -22.465176
33.351118 -79.007286 -20.075317000000002
50.661158 -79.007286 -23.686852
17.451157000000002 -76.622314 -15.020866
9.796669000000001 -76.622314 -5.263916
12.973968999999997 -79.007286 -4.703938
20.144011999999996 -79.007286 -13.422938
9.796669000000001 -76.622314 5.263916
17.451157000000002 -76.622314 15.020866
20.144011999999996 -79.007286 13.422938
12.973968999999997 -79.007286 4.703938
31.5506 -76.622314 22.465176
50.030184 -76.622314 26.506646999999997
50.661158 -79.007286 23.686852
33.351118 -79.007286 20.075317000000002
68.637874 -80.649788 21.27829
84.648628 -80.649788 18.033989000000002
81.74543 -81.594009 15.817425
67.675335 -81.594009 18.645167999999998
96.86440999999999 -80.649788 12.058048
103.496265 -80.649788 4.225625
98.427979 -81.594009 3.724049
92.599976 -81.594009 10.550819
103.496265 -80.649788 -4.225625
96.86440999999999 -80.649788 -12.058048
92.599976 -81.594009 -10.550819
98.427979 -81.594009 -3.724049
84.648628 -80.649788 -18.033989000000002
68.637874 -80.649788 -21.27829
67.675335 -81.594009 -18.645167999999998
81.74543 -81.594009 -15.817425
51.362126 -80.649788 -21.27829
35.351372 -80.649788 -18.033989000000002
38.25457 -81.594009 -15.817425
52.324664999999996 -81.594009 -18.645167999999998
23.13559 -80.649788 -12.058048
16.503735 -80.649788 -4.225625
21.572021 -81.594009 -3.724049
27.400024000000002 -81.594009 -10.550819
16.503735 -80.649788 4.225625
23.13559 -80.649788 12.058048
27.400024000000002 -81.594009 10.550819
21.572021 -81.594009 3.724049
35.351372 -80.649788 18.033989000000002
51.362126 -80.649788 21.27829
52.324664999999996 -81.594009 18.645167999999998
38.25457 -81.594009 15.817425
66.04360199999999 -82.020882 14.228792000000002
76.463005 -82.020882 12.134748
66.521227 -82.127602 7.638761
85.009935 -82.020882 7.9877970000000005
89.325779 -82.020882 2.9323349999999997
75.743623 -82.127602 3.1640770000000003
89.325779 -82.020882 -2.9323349999999997
85.009935 -82.020882 -7.9877970000000005
75.743623 -82.127602 -3.1640770000000003
76.463005 -82.020882 -12.134748
66.04360199999999 -82.020882 -14.228792000000002
66.521227 -82.127602 -7.638761
53.956398 -82.020882 -14.228792000000002
43.536995000000005 -82.020882 -12.134748
53.478773000000004 -82.127602 -7.638761
34.990065 -82.020882 -7.9877970000000005
30.674221000000003 -82.020882 -2.9323349999999997
44.256377 -82.127602 -3.1640770000000003
30.674221000000003 -82.020882 2.9323349999999997
34.990065 -82.020882 7.9877970000000005
44.256377 -82.127602 3.1640770000000003
43.536995000000005 -82.020882 12.134748
53.956398 -82.020882 14.228792000000002
53.478773000000004 -82.127602 7.638761
92.716927 -49.500183 34.826698
92.703537 -56.25407 33.170066999999996
71.460636 -56.25407 39.137337
71.465328 -49.500183 41.091991
117.73407 -49.500183 8.1604
117.710442 -56.25407 7.772228
108.91133099999999 -56.25407 22.178469
108.931358 -49.500183 23.286139000000002
108.931358 -49.500183 -23.286139000000002
108.91133099999999 -56.25407 -22.178469
117.710442 -56.25407 -7.772228
117.73407 -49.500183 -8.1604
71.465328 -49.500183 -41.091991
71.460636 -56.25407 -39.137337
92.703537 -56.25407 -33.170066999999996
92.716927 -49.500183 -34.826698
27.283073 -49.500183 -34.826691
27.296463000000003 -56.25407 -33.170066999999996
48.539364 -56.25407 -39.137337
48.534672 -49.500183 -41.091991
2.2659300000000044 -49.500183 -8.160397999999999
2.2895579999999924 -56.25407 -7.772228
11.088669000000003 -56.25407 -22.178469
11.068641999999997 -49.500183 -23.286135
11.068641999999997 -49.500183 23.286135
11.088669000000003 -56.25407 22.178469
2.2895579999999924 -56.25407 7.772228
2.2659300000000044 -49.500183 8.160397999999999
48.534672 -49.500183 41.091991
48.539364 -56.25407 39.137337
27.296463000000003 -56.25407 33.170066999999996
27.283073 -49.500183 34.826691
71.286063 -29.79215 42.790306
92.205379 -29.79215 36.266102000000004
92.555164 -40.546757 35.896503
71.408641 -40.546757 42.354240000000004
108.166279 -29.79215 24.248589000000003
116.83133699999999 -29.79215 8.497684
117.448601 -40.546757 8.411076
108.689423 -40.546757 24.00145
116.83133699999999 -29.79215 -8.497684
108.166279 -29.79215 -24.248589000000003
108.689423 -40.546757 -24.00145
117.448601 -40.546757 -8.411076
92.205379 -29.79215 -36.266102000000004
71.286063 -29.79215 -42.790306
71.408641 -40.546757 -42.354240000000004
92.555164 -40.546757 -35.896503
48.713938 -29.79215 -42.790290999999996
27.794621 -29.79215 -36.266064
27.444835999999995 -40.546757 -35.896481
48.591359 -40.546757 -42.354233
11.833721000000004 -29.79215 -24.24855
3.1686630000000022 -29.79215 -8.497669
2.5513989999999964 -40.546757 -8.411067
11.310577000000002 -40.546757 -24.001431
3.1686630000000022 -29.79215 8.497669
11.833721000000004 -29.79215 24.24855
11.310577000000002 -40.546757 24.001431
2.5513989999999964 -40.546757 8.411067
27.794621 -29.79215 36.266064
48.713938 -29.79215 42.790290999999996
48.591359 -40.546757 42.354233
27.444835999999995 -40.546757 35.896481
70.722053 -8.3334 41.789055
90.595951 -8.3334 35.4175
91.615053 -18.807949 36.132571999999996
71.079188 -18.807949 42.632748
105.759232 -8.3334 23.681181
113.99128 -8.3334 8.298841
115.78961899999999 -18.807949 8.466396000000001
107.28338600000001 -18.807949 24.159307000000002
113.99128 -8.3334 -8.298841
105.759232 -8.3334 -23.681181
107.28338600000001 -18.807949 -24.159307000000002
115.78961899999999 -18.807949 -8.466396000000001
90.595951 -8.3334 -35.4175
70.722053 -8.3334 -41.789055
71.079188 -18.807949 -42.632748
91.615053 -18.807949 -36.132571999999996
49.277948 -8.3334 -41.789047
29.404049 -8.3334 -35.41748
28.384946999999997 -18.807949 -36.132529999999996
48.920813 -18.807949 -42.632732
14.240768000000003 -8.3334 -23.681162
6.008719999999997 -8.3334 -8.298834
4.210381000000005 -18.807949 -8.466382000000001
12.716614 -18.807949 -24.159271
6.008719999999997 -8.3334 8.298834
14.240768000000003 -8.3334 23.681162
12.716614 -18.807949 24.159269000000002
4.210381000000005 -18.807949 8.466382000000001
29.404049 -8.3334 35.41748
49.277948 -8.3334 41.789047
48.920813 -18.807949 42.632732
28.384946999999997 -18.807949 36.132529999999996
68.118133 18.356945 32.595001
66.984478 23.787193 28.100022999999997
79.930586 23.787193 23.815639
83.16552899999999 18.356945 27.625271
69.203764 10.937869000000001 36.698853
86.263435 10.937869000000001 31.103405
88.824127 1.7246 33.766998
70.101133 1.7246 39.841637
94.646317 18.356945 18.471079
89.808149 23.787193 15.923846
95.170624 23.787193 5.580359
100.879166 18.356945 6.473012000000001
99.279533 10.937869000000001 20.796656
106.345898 10.937869000000001 7.287986999999999
110.86463499999999 1.7246 7.912103
103.109299 1.7246 22.577606
100.879166 18.356945 -6.473012000000001
95.170624 23.787193 -5.580359
89.808149 23.787193 -15.923846
94.646317 18.356945 -18.471079
106.345898 10.937869000000001 -7.287988
99.279533 10.937869000000001 -20.796656
103.109299 1.7246 -22.577606
110.86463499999999 1.7246 -7.912103
83.16552899999999 18.356945 -27.625271
79.930586 23.787193 -23.815639
66.984478 23.787193 -28.100022999999997
68.118133 18.356945 -32.595001
86.263435 10.937869000000001 -31.103405
69.203764 10.937869000000001 -36.698853
70.101133 1.7246 -39.841637
88.824127 1.7246 -33.766998
51.881866 18.356945 -32.595001
53.015522000000004 23.787193 -28.100022999999997
40.069414 23.787193 -23.815639
36.834471 18.356945 -27.625271
50.796235 10.937869000000001 -36.698853
33.736565 10.937869000000001 -31.103405
31.175873 1.7246 -33.766994
49.898866999999996 1.7246 -39.841637
25.353683000000004 18.356945 -18.471079
30.191851 23.787193 -15.923846
24.829376000000003 23.787193 -5.580359
19.120834000000002 18.356945 -6.473012000000001
20.720467 10.937869000000001 -20.796656
13.654102000000002 10.937869000000001 -7.287986999999999
9.135365 1.7246 -7.912102
16.890701 1.7246 -22.577602
19.120834000000002 18.356945 6.473012000000001
24.829376000000003 23.787193 5.580359
30.191851 23.787193 15.923846
25.353683000000004 18.356945 18.471079
13.654102000000002 10.937869000000001 7.287988
20.720467 10.937869000000001 20.796656
16.890701 1.7246 22.577602
9.135365 1.7246 7.912102
36.834471 18.356945 27.625271
40.069414 23.787193 23.815639
53.015522000000004 23.787193 28.100022999999997
51.881866 18.356945 32.595001
33.736565 10.937869000000001 31.103405
50.796235 10.937869000000001 36.698853
49.898866999999996 1.7246 39.841637
31.175873 1.7246 33.766994
62.340831 36.700245 4.515192
66.189415 36.012436 7.507217
62.267483 36.012436 8.80514
65.651252 36.700245 1.8702599999999998
71.02060399999999 36.012436 1.8116560000000002
69.39610400000001 36.012436 4.945168
65.651252 36.700245 -1.8702599999999998
69.39610400000001 36.012436 -4.945168
71.02060399999999 36.012436 -1.8116560000000002
62.340831 36.700245 -4.515192
62.267483 36.012436 -8.80514
66.189415 36.012436 -7.507217
57.659169 36.700245 -4.515192
53.810585 36.012436 -7.507217
57.732517 36.012436 -8.80514
54.348748 36.700245 -1.8702599999999998
48.979396 36.012436 -1.8116560000000002
50.603896 36.012436 -4.945168
54.348748 36.700245 1.8702599999999998
50.603896 36.012436 4.945168
48.979396 36.012436 1.8116560000000002
57.659169 36.700245 4.515192
57.732517 36.012436 8.80514
53.810585 36.012436 7.507217
62.74666 35.473007 10.891707
66.358307 34.800789 12.264403
63.749708999999996 34.006809000000004 15.070039000000001
60.0 34.810444 13.231029000000001
71.709803 34.810444 9.355777999999999
70.68594300000001 34.006809000000004 12.774559
67.697255 35.473007 9.253359
73.45515499999999 32.001083 16.07799
68.33349 33.07312 16.074265
75.42381 33.07312 12.323122
60.0 33.07312 17.42749
64.715228 32.001083 18.970385
71.581602 35.473007 6.149883999999999
75.350286 34.800789 5.0800980000000004
75.988822 34.006809000000004 8.537736
76.560137 34.810444 0.0
78.861893 34.006809000000004 2.995902
73.632188 35.473007 2.194503
83.743694 32.001083 3.7673129999999997
80.118818 33.07312 6.658192
81.81255300000001 33.07312 0.0
80.123497 32.001083 10.750223
73.632188 35.473007 -2.194503
75.350286 34.800789 -5.0800980000000004
78.861893 34.006809000000004 -2.995902
71.709803 34.810444 -9.355777999999999
75.988822 34.006809000000004 -8.537736
71.581602 35.473007 -6.149883999999999
80.123497 32.001083 -10.750223
80.118818 33.07312 -6.658192
75.42381 33.07312 -12.323122
83.743694 32.001083 -3.7673129999999997
67.697255 35.473007 -9.253359
66.358307 34.800789 -12.264403
70.68594300000001 34.006809000000004 -12.774559
60.0 34.810444 -13.231029000000001
63.749708999999996 34.006809000000004 -15.070039000000001
62.74666 35.473007 -10.891707
64.715228 32.001083 -18.970385
68.33349 33.07312 -16.074265
60.0 33.07312 -17.42749
73.45515499999999 32.001083 -16.07799
57.25334 35.473007 -10.891707
53.641693000000004 34.800789 -12.264403
56.250291000000004 34.006809000000004 -15.070039000000001
48.290197 34.810444 -9.355777999999999
49.314057 34.006809000000004 -12.774559
52.302745 35.473007 -9.253359
46.544845 32.001083 -16.07799
51.66651 33.07312 -16.074265
44.57619 33.07312 -12.323122
55.284772000000004 32.001083 -18.970385
48.418397999999996 35.473007 -6.149883999999999
44.649714 34.800789 -5.0800980000000004
44.011178 34.006809000000004 -8.537736
43.439863 34.810444 0.0
41.138107000000005 34.006809000000004 -2.995902
46.367812 35.473007 -2.194503
36.256305999999995 32.001083 -3.7673129999999997
39.881181999999995 33.07312 -6.658192
38.187447 33.07312 -0.0
39.876503 32.001083 -10.750223
46.367812 35.473007 2.194503
44.649714 34.800789 5.0800980000000004
41.138107000000005 34.006809000000004 2.995902
48.290197 34.810444 9.355777999999999
44.011178 34.006809000000004 8.537736
48.418397999999996 35.473007 6.149883999999999
39.876503 32.001083 10.750223
39.881181999999995 33.07312 6.658192
44.57619 33.07312 12.323122
36.256305999999995 32.001083 3.7673129999999997
52.302745 35.473007 9.253359
53.641693000000004 34.800789 12.264403
49.314057 34.006809000000004 12.774559
56.250291000000004 34.006809000000004 15.070039000000001
57.25334 35.473007 10.891707
55.284772000000004 32.001083 18.970385
51.66651 33.07312 16.074265
46.544845 32.001083 16.07799
70.10652999999999 30.787243 19.494204
65.565896 29.395264 22.39278
60.0 30.787243 21.135345
78.705397 30.787243 14.944970000000001
75.882586 29.395264 18.978573
78.433197 25.931572 22.026363
71.770692 27.788818 22.70414
81.785473 27.788818 17.405823
60.0 27.788818 24.615513
66.459733 25.931572 25.988861
84.399336 30.787243 8.074777000000001
83.753965 29.395264 12.689638
86.453442 30.787243 0.0
88.027294 29.395264 4.446961
92.528255 25.931572 5.161105
88.416998 27.788818 9.404377
90.80934500000001 27.788818 0.0
87.56866099999999 25.931572 14.727482
84.399336 30.787243 -8.074777000000001
88.027294 29.395264 -4.446961
78.705397 30.787243 -14.944970000000001
83.753965 29.395264 -12.689638
87.56866099999999 25.931572 -14.727482
88.417 27.788818 -9.404377
81.785473 27.788818 -17.405823
92.528255 25.931572 -5.161105
70.10652999999999 30.787243 -19.494204
75.882586 29.395264 -18.978573
60.0 30.787243 -21.135345
65.565896 29.395264 -22.39278
66.459733 25.931572 -25.988861
71.770693 27.788818 -22.70414
60.0 27.788818 -24.615513
78.433199 25.931572 -22.026363
49.89347 30.787243 -19.494204
54.434104000000005 29.395264 -22.39278
41.294602999999995 30.787243 -14.944970000000001
44.117414000000004 29.395264 -18.978573
41.566803 25.931572 -22.026363
48.229308 27.788818 -22.70414
38.214527000000004 27.788818 -17.405823
53.540267 25.931572 -25.988861
35.600664 30.787243 -8.074777000000001
36.246035 29.395264 -12.689638
33.546558000000005 30.787243 -0.0
31.972706 29.395264 -4.446961
27.471745 25.931572 -5.161105
31.583002 27.788818 -9.404377
29.190655 27.788818 0.0
32.431339 25.931572 -14.727482
35.600664 30.787243 8.074777000000001
31.972706 29.395264 4.446961
41.294602999999995 30.787243 14.944970000000001
36.246035 29.395264 12.689638
32.431339 25.931572 14.727482
31.583 27.788818 9.404377
38.214527000000004 27.788818 17.405823
27.471745 25.931572 5.161105
49.89347 30.787243 19.494204
44.117414000000004 29.395264 18.978573
54.434104000000005 29.395264 22.39278
53.540267 25.931572 25.988861
48.229307 27.788818 22.70414
41.566801 25.931572 22.026363
71.43234 -59.048336 38.056637
82.35352900000001 -61.583293999999995 34.819702
71.315157 -63.903355000000005 35.908833
60.0 -61.583293999999995 37.751059999999995
101.37241399999999 -61.583293999999995 26.694022999999998
92.288403 -63.903351 30.433811
92.622791 -59.048336 32.254143
91.647408 -68.076378 28.460976000000002
82.025824 -66.05291700000001 32.741207
100.765888 -66.05291 25.100573999999998
60.0 -66.05291700000001 35.497589000000005
71.09052700000001 -68.076385 33.581089
108.790565 -59.048336 21.566055
113.966194 -61.583293999999995 14.422787
108.290447 -63.903351 20.348928
118.509434 -61.583293999999995 0.0
116.977844 -63.903351 7.131083
117.567947 -59.048336 7.557614
115.846695 -68.076378 6.668817999999999
113.175026 -66.05291 13.561845000000002
117.651657 -66.05291 0.0
107.331768 -68.076378 19.029831
117.567947 -59.048336 -7.557614
113.966194 -61.583293999999995 -14.422787
116.977844 -63.903351 -7.131083
101.37241399999999 -61.583293999999995 -26.694022999999998
108.290447 -63.903351 -20.348928
108.790565 -59.048336 -21.566055
107.331768 -68.076378 -19.029831
113.175026 -66.05291 -13.561845000000002
100.765888 -66.05291 -25.100573999999998
115.846695 -68.076378 -6.668817999999999
92.622791 -59.048336 -32.254143
82.35352900000001 -61.583293999999995 -34.819702
92.288403 -63.903351 -30.433811
60.0 -61.583293999999995 -37.751059999999995
71.315157 -63.903351 -35.908833
71.43234 -59.048336 -38.056637
71.09052700000001 -68.076378 -33.581089
82.025824 -66.05291 -32.741207
60.0 -66.05291 -35.497589000000005
91.647408 -68.076378 -28.460976000000002
48.567660000000004 -59.048336 -38.056637
37.646471 -61.583293999999995 -34.819702
48.684843 -63.903351 -35.908833
18.627586 -61.583293999999995 -26.694022999999998
27.711596999999998 -63.903351 -30.433811
27.377209 -59.048336 -32.254143
28.352591999999998 -68.076378 -28.460976000000002
37.974176 -66.05291 -32.741207
19.234111999999996 -66.05291 -25.100573999999998
48.909473 -68.076378 -33.581089
11.209435 -59.048336 -21.566055
6.0338060000000056 -61.583293999999995 -14.422787
11.709553 -63.903351 -20.348928
1.4905660000000012 -61.583293999999995 -0.0
3.0221560000000025 -63.903351 -7.131083
2.4320530000000034 -59.048336 -7.557614
4.153305000000003 -68.076378 -6.668817999999999
6.824973999999997 -66.05291 -13.561845000000002
2.348343000000007 -66.05291 -0.0
12.668232000000003 -68.076378 -19.029831
2.4320530000000034 -59.048336 7.557614
6.0338060000000056 -61.583293999999995 14.422787
3.0221560000000025 -63.903351 7.131083
18.627586 -61.583293999999995 26.694022999999998
11.709553 -63.903351 20.348928
11.209435 -59.048336 21.566055
12.668232000000003 -68.076378 19.029831
6.824973999999997 -66.05291 13.561845000000002
19.234111999999996 -66.05291 25.100573999999998
4.153305000000003 -68.076378 6.668817999999999
27.377209 -59.048336 32.254143
37.646471 -61.583293999999995 34.819702
27.711596999999998 -63.903351 30.433811
48.684843 -63.903355000000005 35.908833
48.567660000000004 -59.048336 38.056637
48.909473 -68.076385 33.581089
37.974176 -66.05291700000001 32.741207
28.352591999999998 -68.076378 28.460976000000002
81.455753 -70.018158 30.381474
70.73250300000001 -71.860947 30.890327000000003
60.0 -70.01816600000001 32.939201000000004
99.710789 -70.018158 23.291515
90.625769 -71.860947 26.180473000000003
89.25292999999999 -75.180328 23.714760000000002
80.627977 -73.58744 27.722332
98.178722 -73.58744 21.252922
60.0 -73.58744 30.056192
70.251405 -75.180328 27.981031
111.79875200000001 -70.018158 12.58441
105.80381 -71.860947 17.505020000000002
116.159515 -70.018158 0.0
114.04386099999999 -71.860947 6.134462999999999
111.621284 -75.180328 5.556711
109.800331 -73.58744 11.482957
113.992855 -73.58744 -0.0
103.75060300000001 -75.180328 15.856373999999999
111.79875200000001 -70.018158 -12.58441
114.04386099999999 -71.860947 -6.134462999999999
99.710789 -70.018158 -23.291515
105.80381 -71.860947 -17.505020000000002
103.75060300000001 -75.180328 -15.856373999999999
109.800331 -73.58744 -11.482957
98.178722 -73.58744 -21.252922
111.621284 -75.180328 -5.556711
81.455753 -70.018158 -30.381474
90.625769 -71.860947 -26.180473000000003
60.0 -70.018158 -32.939201000000004
70.73250300000001 -71.860947 -30.890327000000003
70.251405 -75.180328 -27.981031
80.627977 -73.58744 -27.722332
60.0 -73.58744 -30.056192
89.25292999999999 -75.180328 -23.714760000000002
38.544247 -70.018158 -30.381474
49.267497 -71.860947 -30.890327000000003
20.289211 -70.018158 -23.291515
29.374230999999998 -71.860947 -26.180473000000003
30.74707 -75.180328 -23.714760000000002
39.372023 -73.58744 -27.722332
21.821278 -73.58744 -21.252922
49.748595 -75.180328 -27.981031
8.201248 -70.018158 -12.58441
14.196190000000001 -71.860947 -17.505020000000002
3.840485000000001 -70.018158 -0.0
5.956139 -71.860947 -6.134462999999999
8.378715999999997 -75.180328 -5.556711
10.199669 -73.58744 -11.482957
6.007144999999994 -73.58744 0.0
16.249396999999995 -75.180328 -15.856373999999999
8.201248 -70.018158 12.58441
5.956139 -71.860947 6.134462999999999
20.289211 -70.018158 23.291515
14.196190000000001 -71.860947 17.505020000000002
16.249396999999995 -75.180328 15.856373999999999
10.199669 -73.58744 11.482957
21.821278 -73.58744 21.252922
8.378715999999997 -75.180328 5.556711
38.544247 -70.018158 30.381474
29.374230999999998 -71.860947 26.180473000000003
49.267497 -71.860947 30.890327000000003
49.748595 -75.180328 27.981031
39.372023 -73.58744 27.722332
30.74707 -75.180328 23.714760000000002
79.574619 -76.622314 24.951181
69.664608 -77.901825 25.06329
60.0 -76.622314 27.051746
96.229145 -76.622314 19.128462
87.578474 -77.901825 21.241889999999998
85.669357 -79.927132 18.995878
78.335773 -79.007286 22.296858
93.936256 -79.007286 17.093564999999998
60.0 -79.007286 24.173962
68.995578 -79.927132 22.413221
107.257301 -76.622314 10.335111
101.246284 -77.901825 14.202942000000002
111.23574099999999 -76.622314 -0.0
108.666443 -77.901825 4.977282
105.29750100000001 -79.927132 4.45101
104.266457 -79.007286 9.235657000000002
107.99309500000001 -79.007286 0.0
98.39101 -79.927132 12.701195
107.257301 -76.622314 -10.335111
108.666443 -77.901825 -4.977282
96.229145 -76.622314 -19.128462
101.246284 -77.901825 -14.202942000000002
98.39101 -79.927132 -12.701195
104.266457 -79.007286 -9.235657000000002
93.936256 -79.007286 -17.093564999999998
105.29750100000001 -79.927132 -4.45101
79.574619 -76.622314 -24.951181
87.578474 -77.901825 -21.241889999999998
60.0 -76.622314 -27.051746
69.664608 -77.901825 -25.06329
68.995578 -79.927132 -22.413221
78.335773 -79.007286 -22.296858
60.0 -79.007286 -24.173962
85.669357 -79.927132 -18.995878
40.425381 -76.622314 -24.951181
50.335392 -77.901825 -25.06329
23.770854999999997 -76.622314 -19.128462
32.421526 -77.901825 -21.241889999999998
34.330642999999995 -79.927132 -18.995878
41.664227 -79.007286 -22.296858
26.063744 -79.007286 -17.093564999999998
51.004422 -79.927132 -22.413221
12.742699000000002 -76.622314 -10.335111
18.753715999999997 -77.901825 -14.202942000000002
8.764259000000003 -76.622314 0.0
11.333556999999999 -77.901825 -4.977282
14.702498999999996 -79.927132 -4.45101
15.733542999999997 -79.007286 -9.235657000000002
12.006904999999996 -79.007286 0.0
21.608990000000006 -79.927132 -12.701195
12.742699000000002 -76.622314 10.335111
11.333556999999999 -77.901825 4.977282
23.770854999999997 -76.622314 19.128462
18.753715999999997 -77.901825 14.202942000000002
21.608990000000006 -79.927132 12.701195
15.733542999999997 -79.007286 9.235657000000002
26.063744 -79.007286 17.093564999999998
14.702498999999996 -79.927132 4.45101
40.425381 -76.622314 24.951181
32.421526 -77.901825 21.241889999999998
50.335392 -77.901825 25.06329
51.004422 -79.927132 22.413221
41.664227 -79.007286 22.296858
34.330642999999995 -79.927132 18.995878
76.959499 -80.649788 20.029636
68.214777 -81.19787600000001 20.087217000000003
60.0 -80.649788 21.715868
91.389015 -80.649788 15.355432999999998
83.402164 -81.19787600000001 17.02829
79.493887 -81.860809 14.240029999999999
75.030527 -81.594009 17.606302
87.656445 -81.594009 13.418830999999999
60.0 -81.594009 18.977098
66.968595 -81.860809 16.757307
100.943825 -80.649788 8.296543
95.019596 -81.19787600000001 11.379316000000001
104.390743 -80.649788 0.0
101.31039799999999 -81.19787600000001 3.994425
94.537079 -81.860809 3.381139
96.286869 -81.594009 7.2927669999999996
99.112087 -81.594009 0.0
89.348953 -81.860809 9.458373
100.943825 -80.649788 -8.296543
101.31039799999999 -81.19787600000001 -3.994425
91.389015 -80.649788 -15.355432999999998
95.019596 -81.19787600000001 -11.379316000000001
89.348953 -81.860809 -9.458373
96.286869 -81.594009 -7.2927669999999996
87.656445 -81.594009 -13.418830999999999
94.537079 -81.860809 -3.381139
76.959499 -80.649788 -20.029636
83.402164 -81.19787600000001 -17.02829
60.0 -80.649788 -21.715868
68.214777 -81.19787600000001 -20.087217000000003
66.968595 -81.860809 -16.757307
75.030527 -81.594009 -17.606302
60.0 -81.594009 -18.977098
79.493887 -81.860809 -14.240029999999999
43.040501000000006 -80.649788 -20.029636
51.785223 -81.19787600000001 -20.087217000000003
28.610985 -80.649788 -15.355432999999998
36.597836 -81.19787600000001 -17.02829
40.506113 -81.860809 -14.240029999999999
44.969473 -81.594009 -17.606302
32.343554999999995 -81.594009 -13.418830999999999
53.031405 -81.860809 -16.757307
19.056175000000003 -80.649788 -8.296543
24.980404 -81.19787600000001 -11.379316000000001
15.609257 -80.649788 0.0
18.689602 -81.19787600000001 -3.994425
25.462921 -81.860809 -3.381139
23.713130999999997 -81.594009 -7.2927669999999996
20.887912999999998 -81.594009 0.0
30.651047 -81.860809 -9.458373
19.056175000000003 -80.649788 8.296543
18.689602 -81.19787600000001 3.994425
28.610985 -80.649788 15.355432999999998
24.980404 -81.19787600000001 11.379316000000001
30.651047 -81.860809 9.458373
23.713130999999997 -81.594009 7.2927669999999996
32.343554999999995 -81.594009 13.418830999999999
25.462921 -81.860809 3.381139
43.040501000000006 -80.649788 20.029636
36.597836 -81.19787600000001 17.02829
51.785223 -81.19787600000001 20.087217000000003
53.031405 -81.860809 16.757307
44.969473 -81.594009 17.606302
40.506113 -81.860809 14.240029999999999
71.670254 -82.020882 13.670171
65.645949 -82.100922 11.156863000000001
60.0 -82.020882 14.263901999999998
80.78764 -82.020882 10.086098
72.267284 -82.100922 9.826138
60.0 -82.127602 6.57538
69.582698 -82.127602 4.649495
88.174459 -82.020882 5.662368
80.25185 -82.100922 5.952046
89.398136 -82.020882 0.0
82.994488 -82.100922 2.739395
73.551973 -82.127602 0.0
88.174459 -82.020882 -5.662368
82.994488 -82.100922 -2.739395
80.78764 -82.020882 -10.086098
80.25185 -82.100922 -5.952046
69.582698 -82.127602 -4.649495
71.670254 -82.020882 -13.670171
72.267284 -82.100922 -9.826138
60.0 -82.020882 -14.263901999999998
65.645949 -82.100922 -11.156863000000001
60.0 -82.127602 -6.57538
48.329746 -82.020882 -13.670171
54.354051 -82.100922 -11.156863000000001
39.212360000000004 -82.020882 -10.086098
47.732715999999996 -82.100922 -9.826138
50.417302 -82.127602 -4.649495
31.825540999999998 -82.020882 -5.662368
39.748149999999995 -82.100922 -5.952046
30.601864000000003 -82.020882 0.0
37.005511999999996 -82.100922 -2.739395
46.448026 -82.127602 0.0
31.825540999999998 -82.020882 5.662368
37.005511999999996 -82.100922 2.739395
39.212360000000004 -82.020882 10.086098
39.748149999999995 -82.100922 5.952046
50.417302 -82.127602 4.649495
48.329746 -82.020882 13.670171
47.732715999999996 -82.100922 9.826138
54.354051 -82.100922 11.156863000000001
101.66367 -49.500183 29.653948
92.733799 -53.103638000000004 34.045246
82.510891 -49.500183 38.68063
92.656265 -45.34684 35.461441
82.501678 -56.25407 36.840675
101.64661799999999 -56.25407 28.243376
60.0 -56.25407 39.942177
71.47124099999999 -53.103638000000004 40.169959999999996
71.44407100000001 -45.34684 41.840923
60.0 -49.500183 41.937031
118.921345 -49.500183 0.0
117.763847 -53.103638000000004 7.9772940000000006
114.346115 -49.500183 16.022033999999998
117.627018 -45.34684 8.309132
114.323875 -56.25407 15.259901999999999
118.897232 -56.25407 0.0
108.956593 -53.103638000000004 22.763638
108.84063 -45.34684 23.71055
101.66367 -49.500183 -29.653948
108.956593 -53.103638000000004 -22.763638
114.346115 -49.500183 -16.022033999999998
108.84063 -45.34684 -23.71055
114.323875 -56.25407 -15.259901999999999
101.64661799999999 -56.25407 -28.243376
117.763847 -53.103638000000004 -7.9772940000000006
117.627018 -45.34684 -8.309132
60.0 -49.500183 -41.937031
71.47124099999999 -53.103638000000004 -40.169959999999996
82.510891 -49.500183 -38.68063
71.44407100000001 -45.34684 -41.840923
82.501678 -56.25407 -36.840675
60.0 -56.25407 -39.942177
92.733799 -53.103638000000004 -34.045246
92.656265 -45.34684 -35.461441
18.336329999999997 -49.500183 -29.653941999999997
27.266201000000002 -53.103638000000004 -34.045242
37.489109 -49.500183 -38.680626000000004
27.343734999999995 -45.34684 -35.46143
37.498322 -56.25407 -36.840675
18.353382000000003 -56.25407 -28.243376
48.528759 -53.103638000000004 -40.169959999999996
48.555929 -45.34684 -41.840919
1.0786550000000048 -49.500183 0.0
2.2361530000000016 -53.103638000000004 -7.9772940000000006
5.653884999999995 -49.500183 -16.022032
2.3729819999999933 -45.34684 -8.309127
5.676124999999999 -56.25407 -15.259901999999999
1.1027680000000046 -56.25407 -0.0
11.043407000000002 -53.103638000000004 -22.763635999999998
11.159370000000003 -45.34684 -23.710541
18.336329999999997 -49.500183 29.653941999999997
11.043407000000002 -53.103638000000004 22.763635999999998
5.653884999999995 -49.500183 16.022032
11.159370000000003 -45.34684 23.710541
5.676124999999999 -56.25407 15.259901999999999
18.353382000000003 -56.25407 28.243376
2.2361530000000016 -53.103638000000004 7.9772940000000006
2.3729819999999933 -45.34684 8.309127
48.528759 -53.103638000000004 40.169959999999996
37.489109 -49.500183 38.680626000000004
48.555929 -45.34684 41.840919
37.498322 -56.25407 36.840675
27.266201000000002 -53.103638000000004 34.045242
27.343734999999995 -45.34684 35.46143
71.194313 -24.230526 42.771194
82.158924 -29.79215 40.279301000000004
71.356739 -35.296378999999995 42.661011
60.0 -29.79215 43.670258000000004
101.012234 -29.79215 30.879578000000002
92.407059 -35.296378999999995 36.156509
91.943567 -24.230526 36.249912
82.399591 -40.546757 39.868813
101.457672 -40.546757 30.564863
60.0 -40.546757 43.225231
107.774712 -24.230526 24.237766
113.496365 -29.79215 16.684254
108.467911 -35.296378999999995 24.175306
118.000046 -29.79215 0.0
117.18723299999999 -35.296378999999995 8.472002
116.369324 -24.230526 8.493893
114.0774 -40.546757 16.514206
118.63000500000001 -40.546757 0.0
116.369324 -24.230526 -8.493893
113.496365 -29.79215 -16.684254
117.18723299999999 -35.296378999999995 -8.472002
101.012234 -29.79215 -30.879578000000002
108.467911 -35.296378999999995 -24.175306
107.774712 -24.230526 -24.237766
114.0774 -40.546757 -16.514206
101.457672 -40.546757 -30.564863
91.943567 -24.230526 -36.249912
82.158924 -29.79215 -40.279301000000004
92.407059 -35.296378999999995 -36.156509
60.0 -29.79215 -43.670258000000004
71.356739 -35.296378999999995 -42.661011
71.194313 -24.230526 -42.771194
82.399591 -40.546757 -39.868813
60.0 -40.546757 -43.225231
48.805688 -24.230526 -42.771179
37.841076 -29.79215 -40.279270000000004
48.643262 -35.296378999999995 -42.660999
18.987766 -29.79215 -30.879535999999998
27.592940999999996 -35.296378999999995 -36.156479
28.056433000000002 -24.230526 -36.24987
37.600409 -40.546757 -39.868797
18.542328000000005 -40.546757 -30.564842
12.225287999999999 -24.230526 -24.237724
6.503634999999996 -29.79215 -16.684223
11.532089 -35.296378999999995 -24.175278
1.9999540000000025 -29.79215 0.0
2.812767000000001 -35.296378999999995 -8.471991000000001
3.630676000000001 -24.230526 -8.493876
5.922600000000003 -40.546757 -16.514191
1.3699949999999959 -40.546757 0.0
3.630676000000001 -24.230526 8.493876
6.503634999999996 -29.79215 16.684223
2.812767000000001 -35.296378999999995 8.471991000000001
18.987766 -29.79215 30.879535999999998
11.532089 -35.296378999999995 24.175278
12.225287999999999 -24.230526 24.237724
5.922600000000003 -40.546757 16.514191
18.542328000000005 -40.546757 30.564842
28.056433000000002 -24.230526 36.249866
37.841076 -29.79215 40.279270000000004
27.592940999999996 -35.296378999999995 36.156479
48.643262 -35.296378999999995 42.660999
48.805688 -24.230526 42.771179
37.600409 -40.546757 39.868797
70.451661 -3.25815 40.979411999999996
81.051554 -8.3334 39.3368
70.926498 -13.512787 42.322769
60.0 -8.3334 42.648422
98.962692 -8.3334 30.157010999999997
91.17934600000001 -13.512787 35.869846
89.824375 -3.25815 34.731297
81.752748 -18.807949 40.130989
100.260475 -18.807949 30.765881
60.0 -18.807949 43.509457
104.60527 -3.25815 23.222363
110.82296 -8.3334 16.293846
106.63174799999999 -13.512787 23.983639
115.101585 -8.3334 0.0
115.020756 -13.512787 8.404834
112.629726 -3.25815 8.138052
112.515774 -18.807949 16.622822
116.936905 -18.807949 0.0
112.629726 -3.25815 -8.138052
110.82296 -8.3334 -16.293846
115.020756 -13.512787 -8.404834
98.962692 -8.3334 -30.157010999999997
106.63174799999999 -13.512787 -23.983639
104.60527 -3.25815 -23.222363
112.515774 -18.807949 -16.622822
100.260475 -18.807949 -30.765881
89.824375 -3.25815 -34.731297
81.051554 -8.3334 -39.3368
91.17934600000001 -13.512787 -35.869846
60.0 -8.3334 -42.648422
70.926498 -13.512787 -42.322769
70.451661 -3.25815 -40.979411999999996
81.752748 -18.807949 -40.130989
60.0 -18.807949 -43.509457
49.548339999999996 -3.25815 -40.979408
38.948448 -8.3334 -39.336784
49.073503 -13.512787 -42.322753999999996
21.037308000000003 -8.3334 -30.156990000000004
28.820653999999998 -13.512787 -35.869816
30.175625 -3.25815 -34.731285
38.247252 -18.807949 -40.130959000000004
19.739525 -18.807949 -30.765839
15.394729999999996 -3.25815 -23.222353
9.177040000000005 -8.3334 -16.293833
13.368252000000005 -13.512787 -23.983608
4.898415 -8.3334 0.0
4.979243999999994 -13.512787 -8.404823
7.370274000000002 -3.25815 -8.138048
7.484226 -18.807949 -16.622795
3.063094999999997 -18.807949 0.0
7.370274000000002 -3.25815 8.138048
9.177040000000005 -8.3334 16.293833
4.979243999999994 -13.512787 8.404823
21.037308000000003 -8.3334 30.156990000000004
13.368252000000005 -13.512787 23.983608
15.394729999999996 -3.25815 23.222353
7.484226 -18.807949 16.622795
19.739525 -18.807949 30.765839
30.175625 -3.25815 34.731285
38.948448 -8.3334 39.336784
28.820653999999998 -13.512787 35.869816
49.073503 -13.512787 42.322753999999996
49.548339999999996 -3.25815 40.979408
38.247252 -18.807949 40.130959000000004
60.0 18.356945 33.265297
67.54529 21.28566 30.339803999999997
75.939049 18.356945 30.682274
68.678969 14.931023000000001 34.752415
73.713244 23.787193 26.451069
60.0 23.787193 28.677883
85.380791 23.787193 20.278357999999997
81.53089299999999 21.28566 25.713923
84.765905 14.931023000000001 29.453745
89.50035700000001 18.356945 23.522154
78.070564 10.937869000000001 34.5453
69.681494 6.496167 38.405021999999995
60.0 10.937869000000001 37.453545
93.445412 10.937869000000001 26.483683000000003
87.626661 6.496167 32.549431
79.832449 1.7246 37.503654
