182.174305 -92.640381 -8.001358999999999
172.621635 -87.68821700000001 -6.63657
193.056835 -95.48262 -5.67063
187.317928 -94.367172 -6.826473
201.409039 -93.748039 -8.516024
195.54014999999998 -93.622063 -9.834228
192.076454 -90.827118 -14.805641
189.866646 -92.852791 -11.010533
197.549103 -91.240799 -13.624198999999999
184.683975 -91.500061 -12.102081
208.444252 -90.228577 -10.470767
203.100311 -91.02583299999999 -12.189453
213.164879 -85.519592 -11.278372000000001
208.891266 -86.958694 -13.547234
204.085587 -84.824089 -18.143407999999997
204.028221 -87.979874 -15.420212
208.384907 -83.62149000000001 -16.162893
198.875553 -88.487595 -16.922764
214.74279 -80.303574 -10.766353
211.997929 -82.063324 -13.693029999999998
213.066467 -75.378601 -9.063106
211.965317 -77.056625 -12.605494
206.858948 -75.907524 -17.297445
209.855461 -78.797478 -15.693695000000002
208.334255 -74.245804 -14.130362
206.883293 -80.415527 -18.274714000000003
208.262695 -71.521454 -6.3842550000000005
208.798553 -72.729736 -10.456453
201.171391 -69.265427 -3.1678919999999997
202.961411 -69.716301 -7.560633
198.771782 -69.300613 -12.763213
203.934723 -70.684517 -11.670753
197.426651 -68.605812 -8.717145
204.016354 -72.012421 -15.365993
192.799984 -69.026604 0.10853299999999999
195.376282 -68.49247700000001 -4.375642
184.447735 -70.761108 2.9539009999999997
187.153992 -69.237495 -1.367913
184.561405 -68.873474 -7.19688
189.73423 -68.393341 -5.7079830000000005
182.051701 -70.00527199999999 -3.094329
191.953976 -68.2006 -9.900426
177.41251 -74.280594 4.908653
179.593792 -71.833694 0.9873120000000001
173.802845 -75.900856 2.3451169999999997
172.552216 -74.87648 -3.8590660000000003
175.572561 -73.26619000000001 -1.298289
177.762245 -71.212975 -5.079743
169.352356 -80.72776800000001 -7.0431490000000005
169.81144899999998 -77.9776 -9.547930000000001
170.641418 -76.498901 -6.631792999999999
170.685947 -84.717896 -8.413651
169.832287 -81.824524 -10.381941000000001
170.647343 -80.036812 -15.326327
169.881618 -79.183167 -12.486034
170.989779 -82.498802 -13.624861
170.952782 -75.669159 -12.144213
170.63047799999998 -76.922668 -14.651191
174.542728 -87.839851 -10.569786
172.258085 -85.14846 -12.030161999999999
180.24786799999998 -89.66211700000001 -13.158959
176.733589 -87.462616 -14.251213
176.234074 -84.60092900000001 -18.458542
174.19462 -85.093018 -15.416510999999998
178.935369 -86.607239 -17.567997000000002
172.61107099999998 -82.72758499999999 -16.660576000000002
186.991188 -89.848343 -15.796870000000002
182.551559 -88.401321 -16.694159
193.725822 -88.435234 -18.088070000000002
188.859966 -87.82708000000001 -19.001247
186.05056 -84.895958 -22.303757
184.538795 -86.761993 -19.759987
190.135002 -85.587761 -21.663879
180.943813 -85.360817 -20.436135999999998
199.405567 -85.57663000000001 -19.662495
194.661999 -85.830627 -20.807901
203.224724 -81.755951 -20.313547
199.10798599999998 -82.70436099999999 -21.849543
194.346478 -80.74904599999999 -24.609501
194.85463 -83.212372 -22.972164000000003
198.028179 -80.037552 -23.513166000000002
190.747387 -83.2798 -23.766272
204.51384000000002 -77.52709200000001 -19.902245
201.495399 -78.942299 -21.961594
203.180321 -73.536987 -18.531792000000003
201.474609 -75.09539000000001 -21.12764
196.262245 -74.589493 -24.025105
199.099358 -76.52356 -23.171387
197.99123400000002 -73.20794699999999 -22.032595
196.279106 -77.703613 -24.700207000000002
199.323586 -70.415062 -16.375632999999997
199.04887 -71.771484 -19.479429
193.618446 -68.59281899999999 -13.786419
194.57341 -69.457336 -17.258339000000003
190.675632 -70.025391 -20.892857
194.786461 -70.613739 -20.240921
190.045746 -69.099518 -18.089397
194.298569 -71.89874300000001 -22.690855
186.875053 -68.406563 -11.148508
188.755417 -68.51864599999999 -14.815369
180.14032600000002 -69.819626 -8.857313000000001
182.446926 -69.092865 -12.508286
180.859097 -69.73037 -17.047623
184.442272 -68.944771 -15.897401
178.845989 -70.118988 -13.993511999999999
185.9659 -69.26550300000001 -18.915241
174.460554 -72.678223 -7.282858
176.644833 -71.089287 -10.70162
172.198837 -74.215538 -9.659957
172.563112 -73.877243 -14.741876999999999
174.126331 -72.494354 -12.685213000000001
176.162216 -71.346512 -15.585107999999998
171.023655 -77.894638 -17.059122
171.939873 -76.14813199999999 -18.776621
171.869308 -75.12044499999999 -16.789272
171.898516 -80.51223 -17.958176
171.952822 -78.53862 -19.294853
173.661148 -77.334236 -22.272568
172.578043 -76.901352 -20.615660000000002
173.263144 -78.834648 -21.306198000000002
173.241491 -74.839119 -20.440023
173.652054 -75.656052 -21.908766
174.42865 -82.560272 -19.372616
173.463203 -80.60818499999999 -20.321057999999997
178.17132900000001 -83.75569899999999 -21.071142000000002
176.244305 -82.046188 -21.701207999999998
176.701548 -79.834518 -23.980667
175.113653 -80.375702 -22.338425
177.911564 -81.238174 -23.613026
174.74912999999998 -78.825005 -23.011765
182.595047 -83.87786899999999 -22.801645
179.86672199999998 -82.630646 -23.222242
187.013062 -82.95084399999999 -24.304707
183.786743 -82.273804 -24.655865
182.062824 -80.00500500000001 -26.082752
181.194897 -81.35685699999999 -24.891911
184.463608 -80.641747 -26.009224
179.310877 -80.25550799999999 -25.076313
190.739056 -81.075562 -25.337557
187.399223 -81.03076899999999 -25.780732999999998
193.244469 -78.56914499999999 -25.764662
190.161957 -79.08811999999999 -26.428010999999998
186.604496 -77.745819 -27.347431
187.259453 -79.270073 -26.780316999999997
189.081318 -77.394745 -27.091103000000004
184.664986 -79.109612 -26.893026000000003
194.090107 -75.794975 -25.494835000000002
191.64839899999998 -76.74578100000001 -26.497776
193.215263 -73.177406 -24.595795000000003
191.635448 -74.355331 -25.979557
187.666142 -74.380402 -27.033888
189.754871 -75.337807 -26.897441999999998
189.05966899999999 -73.399261 -26.224934
187.675232 -76.058571 -27.397686
190.68519600000002 -71.129364 -23.18133
190.125107 -72.285774 -24.953341
186.942566 -69.933929 -21.482775
187.344063 -70.847755 -23.57316
184.625801 -71.880135 -25.325745
187.219322 -71.86348000000001 -25.174646
184.411331 -70.995728 -23.918058
186.578186 -72.889648 -26.294672
182.518818 -69.811775 -19.752270000000003
183.721657 -70.263306 -22.052113000000002
178.100748 -70.738792 -18.249218
179.801594 -70.62015500000001 -20.618505
179.264502 -71.709663 -23.223673
181.138094 -70.88233199999999 -22.621147
177.859228 -71.592163 -21.521889
182.016479 -71.45914499999999 -24.230093
174.374729 -72.614059 -17.21637
176.189075 -71.863174 -19.493648999999998
173.426331 -73.805801 -18.846375
174.722794 -73.968796 -21.959019
175.07347900000002 -72.969078 -20.732769
176.66231299999998 -72.605034 -22.413418
174.453489 -76.20184300000001 -23.1565
175.687346 -75.515129 -24.105778
175.051006 -74.812828 -23.146143
175.065304 -77.449814 -23.717789
175.69176099999999 -76.329712 -24.282362
177.526215 -75.04518900000001 -25.206820999999998
177.532478 -76.199577 -25.457071
176.180576 -78.568329 -24.329912
176.497421 -77.43363199999999 -24.829739
178.13319 -79.03609499999999 -25.240253
177.445112 -77.923645 -25.300035
178.8755 -76.894005 -26.12356
180.322674 -79.23661 -26.069164
179.377333 -78.23539 -26.111368
182.457409 -78.642464 -26.821701
180.713104 -78.113792 -26.599888
180.768518 -76.72168 -26.81587
184.453396 -77.81525400000001 -27.355408
182.640015 -77.45075200000001 -27.199897999999997
185.505016 -76.499504 -27.535721000000002
183.58144 -76.78878 -27.420462
182.102669 -75.783562 -27.128448
186.153103 -75.136871 -27.435184000000003
184.374329 -75.53936 -27.457678
185.49072999999999 -73.862549 -26.964069
184.369915 -74.72479200000001 -27.281094
182.09641299999998 -74.629181 -26.878193
184.42605600000002 -72.770432 -26.261741999999998
183.564274 -73.62088 -26.7337
182.42289 -72.276276 -25.441565
182.61659600000002 -73.130875 -26.263388
180.753401 -73.934761 -26.211689
180.28395999999998 -72.102142 -24.522485999999997
180.684376 -72.81913 -25.452053
178.09862900000002 -72.669907 -23.860149
179.348591 -72.940727 -24.963549
178.860371 -74.107079 -25.519394000000002
176.153198 -73.52346800000001 -23.236275
177.421659 -73.603752 -24.363554
176.480232 -74.265709 -24.142994
100.853348 -90.15520500000001 29.458225
98.7342 -91.339127 29.411064
96.35951600000001 -90.863602 29.372159999999997
97.961449 -89.636604 29.550746999999998
97.711895 -92.957993 28.741415000000003
96.282425 -91.889587 29.122152000000003
100.694538 -92.268959 28.943167
93.279266 -90.599991 28.856688000000002
93.17002099999999 -92.054001 28.502384000000003
99.060303 -94.170609 27.905234999999998
96.139973 -94.357849 27.763428
95.072258 -93.297775 28.353556
93.331726 -95.023911 26.610336
93.7192 -93.935951 27.695251000000003
96.272743 -95.48536700000001 26.549009
91.25251399999999 -92.958389 27.569461999999998
92.628098 -96.07345600000001 25.018621
90.354389 -95.291412 25.334061
91.020321 -94.371445 26.561991
87.386784 -94.623993 24.40588
89.18389499999999 -94.247917 25.881023000000003
88.844707 -95.818947 23.615702
88.649998 -92.78331800000001 26.604412
85.32463800000001 -94.748886 22.489313
84.766563 -93.592766 23.546
86.577271 -93.45552099999999 25.046920999999998
83.359543 -91.99247700000001 23.419307999999997
85.333229 -92.642624 24.742161
82.76168100000001 -93.07418100000001 21.861458
86.886993 -91.63131700000001 26.172520000000002
81.428207 -90.972824 21.798872
82.64978 -90.257019 23.446644
84.345795 -91.086548 24.695808
83.609085 -88.670959 24.228592000000003
84.422882 -90.060516 24.945801
81.587013 -88.859009 22.313906
86.996235 -90.177254 26.526802000000004
83.22120699999999 -86.957352 23.35183
85.243942 -87.238297 25.094275
85.633011 -88.652328 25.714397
87.98916600000001 -86.605179 26.359707
86.98603800000001 -88.014198 26.372715000000003
86.008713 -85.642685 24.708069000000002
88.913712 -89.27291899999999 27.459743
89.653339 -85.054688 26.238490999999996
91.029488 -86.304916 27.523709999999998
89.684898 -87.578796 27.506012
93.934151 -87.005196 28.564217
91.52133599999999 -87.702362 28.186996
93.436756 -85.30925 27.641451
91.516235 -89.448036 28.424814
96.956863 -86.379311 28.767849
96.617378 -88.003555 29.311777000000003
94.12799799999999 -88.494759 29.021101
95.372055 -89.30761700000001 29.325844
99.519852 -88.053947 29.395678999999998
111.721611 -88.081161 26.532095
109.087563 -90.42100500000001 27.343778999999998
106.13423900000001 -89.245583 28.514059000000003
108.171825 -86.99007399999999 27.727669
107.66813300000001 -93.694862 26.093981
105.908867 -92.245514 27.783089
111.435226 -91.893303 25.603245
103.57421500000001 -91.031708 28.890133000000002
102.44495 -93.48848000000001 27.941914
102.82304400000001 -88.455872 29.168190000000003
108.56851599999999 -95.229141 23.78257
104.03813199999999 -96.29675300000001 24.136817999999998
103.64844500000001 -94.875847 26.347458000000003
98.82621 -97.865036 21.792154
99.69227599999999 -96.74173 24.422672
103.541294 -97.600143 21.3367
99.765511 -95.463669 26.471163
95.808155 -96.61868299999999 24.712927
97.147949 -98.63166 18.652142
92.77686700000001 -98.113708 19.408224
94.651077 -97.55513 22.305876
86.825546 -97.057709 17.342188
89.281578 -97.19390899999999 20.314817
90.324776 -98.17263 16.122032
91.27136999999999 -96.834213 22.904476000000003
86.8004 -96.012718 21.372760999999997
84.149963 -96.29559300000001 14.146166000000001
81.90052 -94.807472 15.927926999999999
84.412689 -95.713837 18.756832
78.696014 -91.745789 15.350739
80.775269 -93.33709 17.865783999999998
79.52778599999999 -93.275429 13.013897
83.067566 -94.340363 20.279346
80.698341 -92.025513 19.877941
77.18860600000001 -89.589401 12.904158
77.780273 -88.31485 15.734622
78.930817 -90.430595 17.779239999999998
79.19968399999999 -85.04100799999999 16.984409
79.156181 -87.43064100000001 18.510199
77.474976 -85.77729000000001 13.833010999999999
79.95976999999999 -89.443039 20.133511
81.07641600000001 -86.99282099999999 21.104174
80.34164399999999 -82.44148299999999 15.653654999999999
82.829636 -82.439133 18.941526
81.416565 -84.80032299999999 19.945805
88.041527 -80.87088 21.286169
85.372688 -82.93447900000001 21.870567
85.36882 -80.07047299999999 18.099474
83.768394 -85.011093 22.552448000000002
87.71312 -83.862732 24.333157999999997
91.762157 -79.038956 20.784039
94.090881 -80.622238 23.670147
90.413872 -82.12114 23.987387
100.042236 -81.678253 25.73624
95.783398 -82.482407 25.978504
98.585358 -79.49799300000001 23.314201
92.262508 -83.640701 26.119196
96.720921 -84.468796 27.673414
104.760208 -81.375015 25.2901
104.9673 -83.928436 27.150501000000002
100.65232499999999 -83.962463 27.536516
104.289772 -86.33914200000001 28.427542
109.382416 -84.395134 26.422359000000004
100.466385 -86.134529 28.744358000000002
121.650822 -85.289642 19.483532
119.723366 -88.416428 21.205688000000002
117.06765 -86.72886700000001 23.52107
118.437851 -83.64881899999999 21.73406
117.784771 -92.962067 19.482870000000002
116.73692299999999 -91.210075 22.431510999999997
121.336798 -90.260727 18.295256
114.656803 -89.530052 24.779204999999997
112.927242 -93.519196 23.256372
113.541 -85.34949499999999 25.246948
117.702137 -94.601303 15.963054000000001
112.79084 -96.570663 16.784142000000003
113.377426 -95.130432 20.295513
105.606998 -98.740845 13.550547
107.48114799999999 -97.91581 17.42588
111.279133 -97.675697 12.828461
108.504154 -96.689537 20.871634
102.153542 -98.600418 18.014719
103.08272600000001 -98.998085 9.386766999999999
97.259007 -99.076546 10.262298
99.979794 -99.126076 14.276056
89.03810899999999 -97.600037 7.412105
91.971916 -98.58399200000001 11.307323
94.313248 -98.374825 6.142005
94.782547 -98.903389 15.109929999999999
87.53099399999999 -97.616661 12.592486
86.356441 -95.904457 3.6069400000000003
82.226242 -94.466278 5.4606
84.722923 -96.375252 8.988811
77.783989 -90.208069 4.6634660000000006
79.294403 -92.823318 7.660058
80.377548 -91.948761 2.152829
81.52996800000001 -94.874825 10.869239
77.625359 -91.144272 10.165954
77.32128900000001 -87.13278199999999 2.009425
76.498451 -85.440536 5.191854
76.54409799999999 -88.489449 7.531024
78.43697399999999 -80.894951 6.914681
76.874779 -84.008301 8.620593
77.635254 -82.161766 3.197717
76.50954399999999 -86.96376 10.633707000000001
78.239067 -82.974663 12.156538000000001
81.269836 -77.821213 5.529932
83.43084 -77.286346 9.613404
80.234215 -80.087967 10.756578
90.61464699999999 -75.116112 12.846983999999999
86.130447 -77.302559 13.626183
87.69279499999999 -74.746788 8.664529
82.662109 -79.804321 14.541235
89.012688 -77.893417 17.398119
95.889172 -73.424324 12.106200999999999
98.96262 -74.780342 16.135216
93.631775 -76.09225500000001 16.775997
107.18355199999999 -76.256798 18.985401
101.63965999999999 -76.634293 19.744741
104.658653 -74.047493 15.350928
96.383682 -77.590416 20.302931
103.635265 -78.87712900000001 22.820412
112.615532 -76.517838 17.885981
113.995522 -79.390564 20.936913
108.888714 -78.843002 22.063267
114.31732199999999 -82.39494300000001 23.392025
118.594536 -80.47357199999999 19.340107
109.636349 -81.618942 24.543667000000003
127.523405 -82.3629 8.690823
126.744884 -85.798645 11.20907
125.060316 -83.84871700000001 14.456578
125.179979 -80.465866 11.75113
124.905834 -90.847412 9.416592
124.855328 -89.098007 13.250584
127.439278 -87.634651 7.526557
123.787569 -87.172256 16.634570999999998
121.81992 -92.082588 14.822277
122.343712 -82.00705 17.18729
124.018242 -92.198471 5.228724
119.808769 -94.816475 6.600757000000001
121.23775900000001 -93.66152199999999 10.87711
112.342514 -97.156258 3.221947
114.73741100000001 -96.870926 7.683737
117.761318 -95.385994 2.13383
116.606384 -95.965027 11.980167
109.05265399999999 -98.280884 8.572794
109.657242 -96.693497 -1.269099
103.56936300000001 -97.436516 -0.218229
106.381462 -98.21905500000001 4.175045
94.849541 -95.696663 -3.204134
97.39360400000001 -97.508492 0.864874
100.892815 -95.929512 -4.481714
100.23578599999999 -98.606216 5.106103
91.52083999999999 -96.971008 2.099615
92.852901 -93.214813 -6.996345
87.539391 -92.124062 -5.253394999999999
89.194042 -94.851585 -1.723675
82.673859 -87.323883 -6.097236
82.983566 -90.637436 -3.211512
86.714909 -88.946968 -8.444725
84.265427 -93.54878199999999 0.039152
79.494331 -88.92049399999999 -0.805218
83.448792 -83.800354 -8.597996
81.108932 -81.991173 -5.555154
79.743546 -85.531921 -3.363549
82.947937 -76.942444 -3.762654
79.948486 -80.282684 -2.157532
83.532883 -78.52864100000001 -7.433717
78.050446 -83.755371 -0.25247800000000004
80.018028 -78.845085 1.559836
86.953888 -73.964851 -5.135867
88.04497900000001 -72.973389 -0.9468
83.56600999999999 -75.7192 0.215964
95.51123000000001 -70.63356 2.432007
90.06633000000001 -72.509773 3.4093489999999997
93.21080799999999 -70.777328 -2.0409610000000002
85.231514 -74.96264599999999 4.401965000000001
92.78521 -72.64672900000001 7.809334
101.314903 -69.469749 1.361951
104.284397 -70.35320300000001 5.8721440000000005
98.422264 -71.16156 6.918017999999999
113.004246 -72.092972 8.858011
107.410133 -71.872017 10.228141
110.079369 -70.233643 4.574528
101.60206600000001 -72.321297 11.275984
110.317039 -73.956436 14.282434
118.11931200000001 -72.948318 7.089141000000001
120.314438 -75.665604 10.907269
115.609745 -74.5289 12.816668
121.820288 -78.743111 14.304517
124.25730899999999 -77.21620899999999 8.537535
117.572548 -77.378677 16.342897
130.24544 -79.285057 -3.727778
130.25458 -82.448624 -1.024823
129.30377 -80.796265 2.490915
128.784092 -77.624588 -0.555589
128.733307 -87.000328 -2.588193
129.271097 -85.802986 1.403353
130.22102 -83.793068 -4.7051050000000005
128.885962 -84.205696 5.204256
127.209599 -89.13069899999999 3.501009
127.308096 -78.989632 5.716276000000001
127.378365 -87.68821700000001 -6.63657
124.333744 -90.561661 -5.04778
126.104298 -90.129913 -0.745687
117.825695 -92.640381 -8.001358999999999
120.267155 -93.14337900000001 -3.641483
122.133778 -90.40005500000001 -9.239312
122.405807 -92.98786899999999 0.822176
115.314522 -95.243881 -2.3941790000000003
115.316025 -91.500061 -12.102081
110.133354 -92.852791 -11.010533
112.682072 -94.367172 -6.826473
102.450897 -91.240799 -13.624198999999999
104.45985 -93.622063 -9.834228
107.923546 -90.827118 -14.805641
106.943165 -95.48262 -5.67063
98.590961 -93.748039 -8.516024
101.124447 -88.487595 -16.922764
95.971779 -87.979874 -15.420212
96.899689 -91.02583299999999 -12.189453
91.615093 -83.62149000000001 -16.162893
91.108734 -86.958694 -13.547234
95.914413 -84.824089 -18.143407999999997
91.555748 -90.228577 -10.470767
86.83512099999999 -85.519592 -11.278372000000001
93.11670699999999 -80.415527 -18.274714000000003
90.14453900000001 -78.797478 -15.693695000000002
88.002071 -82.063324 -13.693029999999998
91.66574499999999 -74.245804 -14.130362
88.034683 -77.056625 -12.605494
93.141052 -75.907524 -17.297445
85.25721 -80.303574 -10.766353
86.933533 -75.378601 -9.063106
95.983646 -72.012421 -15.365993
96.065281 -70.684517 -11.670753
91.201447 -72.729736 -10.456453
102.573353 -68.605812 -8.717145
97.038589 -69.716301 -7.560633
101.228218 -69.300613 -12.763213
91.737305 -71.521454 -6.3842550000000005
98.828609 -69.265427 -3.1678919999999997
108.04602399999999 -68.2006 -9.900427
110.26577 -68.393341 -5.7079830000000005
104.623718 -68.49247700000001 -4.375643
117.94829899999999 -70.00527199999999 -3.094329
112.84600800000001 -69.237495 -1.367913
115.43859499999999 -68.873474 -7.19688
107.200016 -69.026604 0.10853299999999999
115.552265 -70.761108 2.9539009999999997
122.23775499999999 -71.212975 -5.079743
124.42743899999999 -73.26619000000001 -1.298289
120.406208 -71.833694 0.9873120000000001
126.197155 -75.900856 2.3451169999999997
127.447784 -74.87648 -3.8590660000000003
122.58749 -74.280594 4.908653
129.36952200000002 -76.922668 -14.651191
130.118382 -79.183167 -12.486034
130.18855100000002 -77.9776 -9.547930000000001
129.047218 -75.669159 -12.144213
129.010221 -82.498802 -13.624861
130.167713 -81.824524 -10.381941000000001
129.352657 -80.036812 -15.326327
130.647644 -80.72776800000001 -7.0431490000000005
129.314053 -84.717896 -8.413651
129.358582 -76.498901 -6.631792999999999
127.388929 -82.72758499999999 -16.660576000000002
125.80538 -85.093018 -15.416510999999998
127.741915 -85.14846 -12.030161999999999
121.06463099999999 -86.607239 -17.567997000000002
123.266411 -87.462616 -14.251213
123.76592600000001 -84.60092900000001 -18.458542
125.457272 -87.839851 -10.569786
119.752132 -89.66211700000001 -13.158959
119.056187 -85.360817 -20.436135999999998
115.461205 -86.761993 -19.759987
117.448441 -88.401321 -16.694159
109.864998 -85.587761 -21.663879
111.140034 -87.82708000000001 -19.001247
113.94944000000001 -84.895958 -22.303757
113.008812 -89.848343 -15.796870000000002
106.274178 -88.435234 -18.088070000000002
109.252613 -83.2798 -23.766272
105.14537 -83.212372 -22.972164000000003
105.33800099999999 -85.830627 -20.807901
101.971821 -80.037552 -23.513166000000002
100.892014 -82.70436099999999 -21.849543
105.653522 -80.74904599999999 -24.609501
100.59443300000001 -85.57663000000001 -19.662495
96.77527599999999 -81.755951 -20.313547
103.720894 -77.703613 -24.700207000000002
100.900642 -76.52356 -23.171387
98.50460100000001 -78.942299 -21.961594
102.008766 -73.20794699999999 -22.032595
98.525391 -75.09539000000001 -21.12764
103.73775499999999 -74.589493 -24.025105
95.48616 -77.52709200000001 -19.902245
96.81967900000001 -73.536987 -18.531792000000003
105.701431 -71.89874300000001 -22.690855
105.213539 -70.613739 -20.240921
100.95113 -71.771484 -19.479429
109.95425399999999 -69.099518 -18.089397
105.42659 -69.457336 -17.258339000000003
109.32436799999999 -70.025391 -20.892857
100.676414 -70.415062 -16.375632999999997
106.381554 -68.59281899999999 -13.786419
114.0341 -69.26550300000001 -18.915241
115.557728 -68.944771 -15.897401
111.244583 -68.51864599999999 -14.815369
121.154011 -70.118988 -13.993511999999999
117.55307400000001 -69.092865 -12.508286
119.14090300000001 -69.73037 -17.047623
113.12494699999999 -68.406563 -11.148508
119.859674 -69.819626 -8.857313000000001
123.837784 -71.346512 -15.585107999999998
125.873669 -72.494354 -12.685213000000001
123.355167 -71.089287 -10.70162
127.801163 -74.215538 -9.659957
127.436888 -73.877243 -14.741876999999999
125.539446 -72.678223 -7.282858
126.34794600000001 -75.656052 -21.908766
127.42195699999999 -76.901352 -20.615660000000002
128.060127 -76.14813199999999 -18.776621
126.758509 -74.839119 -20.440023
126.736856 -78.834648 -21.306198000000002
128.047178 -78.53862 -19.294853
126.338852 -77.334236 -22.272568
128.976345 -77.894638 -17.059122
128.101484 -80.51223 -17.958176
128.130692 -75.12044499999999 -16.789272
125.25087 -78.825005 -23.011765
124.886347 -80.375702 -22.338425
126.536797 -80.60818499999999 -20.321057999999997
122.088436 -81.238174 -23.613026
123.755695 -82.046188 -21.701207999999998
123.298452 -79.834518 -23.980667
125.57135 -82.560272 -19.372616
121.828671 -83.75569899999999 -21.071142000000002
120.689123 -80.25550799999999 -25.076313
118.805103 -81.35685699999999 -24.891911
120.133278 -82.630646 -23.222242
115.536392 -80.641747 -26.009224
116.213257 -82.273804 -24.655865
117.937176 -80.00500500000001 -26.082752
117.404953 -83.87786899999999 -22.801645
112.98693800000001 -82.95084399999999 -24.304707
115.335014 -79.109612 -26.893026000000003
112.74054699999999 -79.270073 -26.780316999999997
112.600777 -81.03076899999999 -25.780732999999998
110.918682 -77.394745 -27.091103000000004
109.838043 -79.08811999999999 -26.428010999999998
113.39550399999999 -77.745819 -27.347431
109.260944 -81.075562 -25.337557
106.75553099999999 -78.56914499999999 -25.764662
112.324768 -76.058571 -27.397686
110.24512899999999 -75.337807 -26.897441999999998
108.351601 -76.74578100000001 -26.497776
110.940331 -73.399261 -26.224934
108.364552 -74.355331 -25.979557
112.33385799999999 -74.380402 -27.033888
105.909893 -75.794975 -25.494835000000002
106.784737 -73.177406 -24.595795000000003
113.42181400000001 -72.889648 -26.294672
112.780678 -71.86348000000001 -25.174646
109.874893 -72.285774 -24.953341
115.58866900000001 -70.995728 -23.918058
112.655937 -70.847755 -23.57316
115.374199 -71.880135 -25.325745
109.314804 -71.129364 -23.18133
113.057434 -69.933929 -21.482775
117.983521 -71.45914499999999 -24.230093
118.861906 -70.882324 -22.621147
116.278343 -70.263306 -22.052113000000002
122.140772 -71.592155 -21.521891
120.198406 -70.62015500000001 -20.618505
120.735498 -71.70965600000001 -23.223673
117.481182 -69.811775 -19.752270000000003
121.899252 -70.738792 -18.249218
123.337687 -72.605026 -22.413418
124.926521 -72.969078 -20.732769
123.810925 -71.863174 -19.493648999999998
126.573669 -73.805801 -18.846375
125.277206 -73.968796 -21.959019
125.625271 -72.614059 -17.21637
122.467522 -76.199577 -25.457071
124.308239 -76.329712 -24.282362
124.31265400000001 -75.515129 -24.105778
122.47378499999999 -75.04518900000001 -25.206820999999998
125.546511 -76.20184300000001 -23.1565
124.934696 -77.449814 -23.717789
124.948994 -74.812828 -23.146143
121.1245 -76.894005 -26.12356
122.554888 -77.923645 -25.300035
123.502579 -77.43363199999999 -24.829739
123.819424 -78.568329 -24.329912
121.86681 -79.03609499999999 -25.240253
119.231482 -76.72168 -26.81587
119.286896 -78.113792 -26.599888
120.622667 -78.23539 -26.111368
119.677326 -79.23661 -26.069164
117.54259099999999 -78.642464 -26.821701
117.89733100000001 -75.783562 -27.128448
116.41856 -76.78878 -27.420462
117.359985 -77.45075200000001 -27.199897999999997
115.546604 -77.81525400000001 -27.355408
114.494984 -76.499504 -27.535721000000002
117.903587 -74.629181 -26.878193
115.63008500000001 -74.72479200000001 -27.281094
115.62567100000001 -75.53936 -27.457678
113.846897 -75.136871 -27.435184000000003
114.50927 -73.862549 -26.964069
119.246599 -73.934761 -26.211689
117.383404 -73.130875 -26.263388
116.435726 -73.62088 -26.7337
115.573944 -72.770432 -26.261741999999998
117.57711 -72.276276 -25.441565
121.139629 -74.107079 -25.519394000000002
120.651409 -72.940727 -24.963549
119.315624 -72.81913 -25.452053
119.71604 -72.102142 -24.522485999999997
121.901371 -72.669907 -23.860151000000002
123.519768 -74.265709 -24.142994
122.578341 -73.603752 -24.363554
123.846802 -73.52346800000001 -23.236276999999998
202.866577 -91.371696 29.330534000000004
205.021263 -93.87895999999999 27.962055
209.826595 -94.65435 25.944292
214.467674 -93.243492 24.459179000000002
216.225815 -90.472923 24.376657
214.071182 -87.96566 25.745132
209.265881 -87.190422 27.762951
204.624744 -88.601265 29.248070000000002
193.714687 -90.762825 28.244682
198.150711 -95.924774 25.427298999999998
208.043926 -97.521027 21.273144
217.598984 -94.61643199999999 18.215637
221.21868899999998 -88.912514 18.045803
216.78273000000002 -83.750587 20.863144000000002
206.889542 -82.154442 25.017342000000003
197.334408 -85.059021 28.074894
182.715851 -88.995316 23.117855
189.311844 -96.69250500000001 18.924061
204.039917 -99.068726 12.739733
218.272507 -94.732101 8.187592
223.67242399999998 -86.22303000000001 7.9342440000000005
217.076538 -78.525887 12.128017
202.348518 -76.149582 18.312325
188.115814 -80.486145 22.864489000000003
174.61357900000002 -86.507248 14.011427
181.71626700000002 -95.46719399999999 9.351375
198.122242 -98.11409 2.46245
214.22116899999997 -92.897552 -2.6198759999999996
220.582581 -82.873428 -2.918387
213.479984 -73.913536 1.741709
197.074032 -71.266464 8.630589
180.975008 -76.482964 13.712871
170.320478 -83.33515899999999 2.090561
176.53813200000002 -91.830597 -2.128838
191.430595 -94.233368 -8.382211
206.274132 -89.13595600000001 -13.006432
212.37371100000001 -79.524445 -13.292689000000001
206.156136 -71.029083 -9.07329
191.26358 -68.62623599999999 -2.819917
176.419971 -73.72357199999999 1.8043040000000001
169.521046 -79.928444 -9.854919
174.283827 -86.45461999999999 -13.091016999999999
185.706757 -88.297646 -17.88747
197.098404 -84.37784599999999 -21.434635
201.785828 -76.991463 -21.654633
197.023155 -70.46534 -18.418556
185.60018200000002 -68.62230699999999 -13.622057999999999
174.208418 -72.542061 -10.074874000000001
171.755011 -77.361176 -18.964405
174.719097 -81.422653 -20.97831
181.828001 -82.569618 -23.963303
188.917408 -80.130188 -26.17083
191.834522 -75.533417 -26.307743
188.870506 -71.47197 -24.293819
181.761623 -70.324997 -21.308804000000002
174.672146 -72.764404 -19.101297
175.253382 -76.011887 -23.860016
176.687849 -77.977402 -24.834616
180.128155 -78.532463 -26.279184000000004
183.559006 -77.351929 -27.3475
184.970734 -75.127342 -27.413760999999997
183.536297 -73.16185 -26.439133
180.09599500000002 -72.606796 -24.99456
176.66511 -73.7873 -23.926273000000002
97.133423 -91.371696 29.330532
94.978733 -93.87895999999999 27.962055
90.173405 -94.65434300000001 25.944292
85.532326 -93.243492 24.459181
83.77419300000001 -90.472923 24.376657
85.928818 -87.96566800000001 25.745132
90.73411899999999 -87.190422 27.762951
95.37525600000001 -88.601265 29.248068
106.285313 -90.762825 28.244682
101.849289 -95.924774 25.427298999999998
91.956078 -97.521027 21.273144
82.401016 -94.61644 18.215639000000003
78.781311 -88.912514 18.045803
83.21727 -83.75059499999999 20.863144000000002
93.110458 -82.154442 25.017342000000003
102.665592 -85.05901300000001 28.074894
117.284149 -88.995316 23.117855
110.68815599999999 -96.69250500000001 18.924061
95.960083 -99.068726 12.739733
81.72749300000001 -94.732101 8.187592
76.32757600000001 -86.223022 7.9342440000000005
82.923462 -78.525887 12.128016
97.65148500000001 -76.149582 18.312325
111.884186 -80.486145 22.864489000000003
125.386421 -86.507248 14.011427
118.283733 -95.467186 9.351375
101.87776199999999 -98.11409 2.46245
85.77883100000001 -92.897552 -2.6198759999999996
79.417419 -82.873428 -2.918387
86.52001999999999 -73.913528 1.741709
102.925968 -71.266464 8.630589
119.024992 -76.482964 13.712872
129.679522 -83.33515899999999 2.090561
123.46187 -91.830589 -2.128838
108.56940499999999 -94.233368 -8.382211
93.725868 -89.13595600000001 -13.006433
87.626289 -79.524445 -13.292689000000001
93.84386800000001 -71.029083 -9.07329
108.73642000000001 -68.62623599999999 -2.819917
123.580032 -73.72357199999999 1.8043040000000001
130.47895599999998 -79.92845200000001 -9.854919
125.716171 -86.45461999999999 -13.091016999999999
114.29324299999999 -88.297646 -17.88747
102.901592 -84.377853 -21.434635
98.21417600000001 -76.991463 -21.654633
102.976845 -70.46533199999999 -18.418556
114.399822 -68.62230699999999 -13.622059
125.791584 -72.542061 -10.074874000000001
128.24498699999998 -77.361176 -18.964407
125.28090499999999 -81.422646 -20.97831
118.171999 -82.569611 -23.963303
111.082592 -80.130188 -26.170832
108.16547800000001 -75.533417 -26.307745
111.129494 -71.47197 -24.293819
118.238377 -70.324997 -21.308804000000002
125.327854 -72.764397 -19.101297
124.746616 -76.01187900000001 -23.860016
123.312151 -77.977402 -24.834616
119.87184500000001 -78.532471 -26.279184000000004
116.440994 -77.351929 -27.347497999999998
115.029266 -75.127342 -27.413760999999997
116.46370300000001 -73.16185 -26.439133
119.904005 -72.606789 -24.994562
123.33489 -73.7873 -23.926273000000002
204.517181 -92.562485 28.746807
198.968548 -91.224762 29.279226
204.33442300000002 -90.130096 29.339515999999996
207.724957 -94.075439 27.186131
202.156494 -94.934372 27.254509000000002
212.078674 -93.782578 25.571716000000002
209.266205 -96.08157299999999 24.269142000000002
215.027985 -91.8554 24.849204999999998
216.13289600000002 -93.994171 22.071861
214.84523000000002 -89.422913 25.441879
218.734146 -89.89502 21.94978
211.63752 -87.910065 27.002584000000002
215.54628000000002 -86.18541 23.974483
207.283775 -88.203018 28.617039000000002
208.43660699999998 -85.038391 26.959919
201.569839 -87.125778 29.157211
194.976341 -93.63580300000001 27.145328999999997
188.096214 -90.009125 26.18832
194.534286 -87.751717 28.579063
202.736 -97.295563 23.370043
193.724678 -96.558655 22.613628
213.267765 -96.587082 19.464760000000002
206.277298 -98.583939 17.342793
220.402229 -91.925308 17.717052
218.400848 -94.898575 13.463398000000002
219.960205 -86.04117600000001 19.150757000000002
222.99357600000002 -87.66145300000001 13.247936
212.200626 -82.381493 22.926006
217.365189 -81.111954 16.822571
201.668808 -83.090065 26.831394
204.812588 -79.08669300000001 22.093412
192.68895700000002 -82.772018 25.972866
184.567497 -93.284622 21.483559
178.088005 -87.804901 19.044121
183.919117 -84.499237 23.619633
196.127129 -98.745346 15.857652999999999
185.224258 -96.32713299999999 14.4651
211.82653 -97.682602 10.037469999999999
201.31699 -98.923508 7.707722
222.46913899999998 -90.71904 7.432453
216.93929300000002 -94.073212 2.7304049999999997
221.820831 -81.933777 9.568546000000001
222.93990300000002 -84.617554 2.448845
210.261299 -76.473007 15.194401000000001
215.80379499999998 -76.09536700000001 7.027889
194.561874 -77.535667 21.014603
199.711121 -73.498856 13.785229000000001
184.08868 -78.349091 18.762520000000002
176.528912 -91.51733399999999 12.197871000000001
172.100712 -85.035202 8.261885000000001
176.127045 -81.226112 14.562215
189.272812 -97.809349 5.937269000000001
178.81753 -93.99575 3.750346
206.89347800000002 -96.416306 -0.552297
194.728981 -96.56289699999999 -2.930925
219.069084 -88.15448 -3.4691989999999997
210.514458 -91.232887 -7.868119999999999
218.667297 -77.863388 -1.104808
216.927109 -81.128067 -8.169052
205.923454 -71.57132 5.155811
210.210342 -72.16757199999999 -3.6574800000000005
188.302765 -72.96417199999999 11.645294
194.298855 -69.600311 3.0237580000000004
178.513325 -74.930267 7.960921000000001
171.92086 -88.100876 0.450775
169.414251 -81.571152 -4.087519
171.856804 -78.285202 2.582928
183.364544 -94.00874300000001 -5.226426999999999
174.995487 -89.218826 -7.879734
199.48418800000002 -92.547974 -11.123113
188.381382 -91.378555 -13.500464000000001
210.83732600000002 -84.574371 -13.785038
201.730659 -86.785156 -17.6572
210.773384 -74.758759 -11.652922
207.22364 -78.12944 -17.915001
199.329697 -68.850922 -5.975683
201.642521 -70.481827 -14.122812
183.209927 -70.311554 -0.07903400000000001
188.256527 -68.322067 -8.50205
174.90713499999998 -72.915405 -4.345289
170.74477000000002 -83.58985899999999 -11.112514
170.395386 -78.50190699999999 -14.8997
170.703911 -76.047974 -9.477449
179.518969 -88.126755 -15.466883
174.250946 -83.784935 -17.51935
191.886581 -87.000961 -19.989914000000002
183.497993 -85.276886 -21.40214
200.602921 -80.871925 -22.032055
192.719696 -82.10376 -24.273623999999998
200.562153 -73.330078 -20.397083
196.514198 -76.12439 -24.451714000000003
191.78803299999998 -68.793213 -16.042652
192.65873 -70.841385 -21.832066
179.420273 -69.918968 -11.519617
183.411697 -69.349434 -17.949238
174.189899 -72.522545 -15.077753
172.52499 -79.635834 -19.752295
173.481339 -76.514969 -22.012989
172.49958800000002 -74.947128 -18.735832000000002
177.97984300000002 -82.456352 -22.459328
175.603691 -79.42305 -23.45496
185.668602 -81.756439 -25.271236
180.693773 -80.24427800000001 -25.592266
191.087429 -77.94612099999999 -26.540813
185.769882 -78.49762 -27.172886
191.062027 -73.25747700000001 -25.524368
187.858589 -75.206253 -27.270922
185.607277 -70.43693499999999 -22.817284
185.73629 -72.298203 -25.828917999999998
177.918449 -71.13685600000001 -20.005394
180.64621 -71.476974 -23.691605
175.570053 -73.223602 -22.111017
176.186184 -76.82663000000001 -24.641504
176.175711 -74.895454 -24.222868
178.432919 -77.988327 -25.756466
181.599718 -77.70005 -26.914623
183.8316 -76.130676 -27.437531
183.82114 -74.19953199999999 -27.018887
181.574434 -73.037842 -25.903896
178.407606 -73.326111 -24.745766
101.031448 -91.224762 29.279226
95.48281899999999 -92.562485 28.746807
95.665577 -90.130104 29.339515999999996
97.843502 -94.934372 27.254509000000002
92.27504300000001 -94.075439 27.186131
90.73379499999999 -96.08157299999999 24.269142000000002
87.921326 -93.782578 25.571716000000002
83.867104 -93.994179 22.071863
84.972015 -91.8554 24.849207
81.265854 -89.89502 21.94978
85.15477 -89.422913 25.441876999999998
84.45371999999999 -86.18541 23.974483
88.36248 -87.910065 27.002585999999997
91.563393 -85.038391 26.959916999999997
92.71622500000001 -88.203018 28.617039000000002
98.430161 -87.125778 29.157213
111.903786 -90.009125 26.18832
105.02366599999999 -93.63580300000001 27.145328999999997
105.46571 -87.751717 28.579063
106.27532199999999 -96.558655 22.613628
97.26400000000001 -97.295563 23.370043
93.722702 -98.583931 17.342793
86.73223100000001 -96.587082 19.464760000000002
81.599152 -94.898575 13.463398000000002
79.597763 -91.925308 17.717052
77.006424 -87.66145300000001 13.247933999999999
80.039795 -86.04118299999999 19.150757000000002
82.634819 -81.111961 16.822569
87.799374 -82.381493 22.926008
95.187412 -79.08669300000001 22.093412
98.331192 -83.090065 26.831391999999997
107.311043 -82.77201099999999 25.972866
121.911995 -87.804901 19.044121
115.432503 -93.284622 21.483559
116.080883 -84.499237 23.619633
114.77574200000001 -96.32713299999999 14.4651
103.872871 -98.745338 15.857652999999999
98.68301 -98.923508 7.707722
88.17347 -97.682602 10.037469999999999
83.060715 -94.073212 2.7304049999999997
77.530861 -90.71904 7.432453
77.060097 -84.617554 2.448845
78.17916899999999 -81.933777 9.568545
84.196205 -76.09536700000001 7.027889999999999
89.73870099999999 -76.473007 15.194401999999998
100.28887900000001 -73.498856 13.785229000000001
105.438129 -77.535667 21.014603
115.91132400000001 -78.349091 18.762520000000002
127.899288 -85.035202 8.261885000000001
123.47108800000001 -91.51733399999999 12.197871000000001
123.87295499999999 -81.226105 14.562215
121.18247 -93.99575 3.750346
110.727188 -97.809349 5.937268
105.271019 -96.562889 -2.930925
93.106522 -96.416313 -0.552297
89.48554200000001 -91.23288000000001 -7.868119999999999
80.930908 -88.15448 -3.4691989999999997
83.072891 -81.128067 -8.169052
81.33270300000001 -77.863388 -1.104808
89.789658 -72.16757199999999 -3.6574809999999998
94.076546 -71.57132 5.155811
105.701145 -69.60030400000001 3.0237580000000004
111.697235 -72.96417199999999 11.645294
121.486675 -74.93026 7.960921000000001
130.585747 -81.571152 -4.087519
128.07914 -88.100876 0.450775
128.143196 -78.285202 2.582928
125.004513 -89.218826 -7.879734
116.635456 -94.00874300000001 -5.226426999999999
111.61861400000001 -91.378555 -13.500464000000001
100.515816 -92.547974 -11.123113
98.269341 -86.785156 -17.6572
89.162674 -84.574371 -13.785038
92.77636 -78.12943299999999 -17.915001
89.226616 -74.75876600000001 -11.652922
98.357483 -70.481827 -14.122812
100.670303 -68.85092900000001 -5.975683
111.743477 -68.322067 -8.50205
116.790073 -70.311554 -0.07903400000000001
125.092863 -72.915413 -4.345289
129.604612 -78.50190699999999 -14.899701
129.255228 -83.58985899999999 -11.112514
129.296089 -76.047974 -9.477449
125.749054 -83.784935 -17.51935
120.481031 -88.126755 -15.466883
116.50200699999999 -85.276886 -21.402138
108.113419 -87.000961 -19.989914000000002
107.280304 -82.10376 -24.273623999999998
99.397076 -80.871933 -22.032053
103.485802 -76.12439 -24.451714000000003
99.437847 -73.330078 -20.397083
107.34127000000001 -70.841385 -21.832066
108.211967 -68.793205 -16.042652
116.588303 -69.349434 -17.949238
120.579725 -69.918968 -11.519617
125.810101 -72.522537 -15.077753
126.51866 -76.514969 -22.012989
127.47501 -79.635826 -19.752295
127.500412 -74.947128 -18.735832000000002
124.396309 -79.42305 -23.45496
122.020157 -82.456345 -22.459328
119.306227 -80.244286 -25.592266
114.33139800000001 -81.756439 -25.271236
114.230118 -78.49762 -27.172886
108.912567 -77.94612099999999 -26.540813
112.141415 -75.206253 -27.270922
108.937973 -73.257469 -25.524368
114.26371 -72.298203 -25.828917999999998
114.39272299999999 -70.436943 -22.817284
119.35379 -71.476974 -23.691605
122.081551 -71.13685600000001 -20.005394
124.429947 -73.223602 -22.111019
123.813816 -76.82663000000001 -24.641504
123.824291 -74.895454 -24.22287
121.567081 -77.988327 -25.756466
118.400284 -77.70004300000001 -26.914623
116.16839999999999 -76.130676 -27.437531
116.17886 -74.199524 -27.018887
118.425568 -73.037842 -25.903894
121.59239600000001 -73.326111 -24.745766
210.110538 -91.21664399999999 27.859957
199.69783 -89.088768 29.492825
200.01123 -93.260124 28.476390999999996
205.512283 -95.854691 25.799969
212.97854999999998 -95.352432 23.031397
218.03637700000002 -92.047531 21.792370000000002
217.72297700000001 -87.87604499999999 22.808754
212.222023 -85.281616 25.485198999999998
204.755711 -85.78398100000001 28.253845000000002
189.116959 -86.184738 26.616221999999997
189.678413 -93.65840899999999 24.795212
199.534264 -98.30675500000001 20.000099
212.911064 -97.40683 15.039832999999998
221.972824 -91.485825 12.820028
221.41140000000001 -84.012199 14.641032999999998
211.555634 -79.363861 19.436066
198.178787 -80.26379399999999 24.396427
179.45292899999998 -82.813126 19.590017
180.068556 -92.558929 17.26041
192.660828 -98.586258 11.115046000000001
209.85334799999998 -97.36438000000001 4.753712999999999
221.574951 -89.609238 1.902929
220.95943499999998 -79.863586 4.23257
208.36726 -73.836197 10.377937
191.17472800000002 -75.05792199999999 16.739207999999998
173.690033 -79.721863 8.790371
173.854959 -90.057114 6.507838
186.12162 -96.306229 0.44030600000000003
203.30426 -94.808456 -5.858006
215.33775300000002 -86.44136 -8.697554
215.17289699999998 -76.106201 -6.41499
202.90624200000002 -69.857063 -0.34744
185.723541 -71.354675 5.950807
170.800388 -77.02381899999999 -3.64519
170.84827 -85.86177099999999 -5.561225
181.130253 -91.178322 -10.663897
195.623184 -89.859039 -15.964209
205.837433 -82.67675 -18.357281
205.789696 -73.838837 -16.441343
195.507736 -68.522354 -11.338612
181.014637 -69.841545 -6.038312
171.35294199999998 -75.36061099999999 -14.594135999999999
171.386013 -81.465874 -15.917732
178.48888599999998 -85.13855699999999 -19.44264
188.500645 -84.227203 -23.104097
195.556648 -79.265671 -24.757248
195.52359 -73.160446 -23.433706
188.420837 -69.487762 -19.908741
178.408978 -70.399124 -16.247284
174.092728 -74.794861 -21.908058
174.11068 -78.106659 -22.625994
177.963634 -80.098869 -24.538057000000002
183.39442400000001 -79.6045 -26.5242
187.22192 -76.913155 -27.420937
187.203979 -73.60141 -26.702999
183.351082 -71.60919200000001 -24.79089
177.92023799999998 -72.103561 -22.804783
179.658947 -75.333267 -26.444934999999997
89.88946200000001 -91.21664399999999 27.859957
100.30217400000001 -89.088768 29.492825
99.98877 -93.260124 28.476390999999996
94.487717 -95.854691 25.799971
87.02145 -95.352432 23.031397
81.963623 -92.047531 21.792370000000002
82.277023 -87.876053 22.808754
87.77798100000001 -85.281616 25.485198999999998
95.24428900000001 -85.78398100000001 28.253845000000002
110.88304099999999 -86.184738 26.616221999999997
110.321587 -93.65840899999999 24.795212
100.46573599999999 -98.30675500000001 20.000099
87.08893599999999 -97.40683 15.039832999999998
78.027176 -91.485825 12.820028
78.5886 -84.012199 14.641032999999998
88.444366 -79.363861 19.436066
101.821213 -80.26379399999999 24.396427
120.547071 -82.813126 19.590017
119.931444 -92.558929 17.26041
107.33917199999999 -98.586258 11.115046000000001
90.146652 -97.36438000000001 4.753712999999999
78.425049 -89.609238 1.902929
79.040565 -79.863586 4.23257
91.63274000000001 -73.836197 10.377937
108.825272 -75.05792199999999 16.739207999999998
126.309967 -79.721863 8.790371
126.14504099999999 -90.057114 6.507838
113.87837999999999 -96.306229 0.44030600000000003
96.69574 -94.808456 -5.858006
84.662247 -86.44136 -8.697554
84.82710300000001 -76.106201 -6.41499
97.093758 -69.857063 -0.34744
114.276463 -71.354675 5.950807
129.199612 -77.02381899999999 -3.64519
129.15173 -85.86177099999999 -5.561225
118.86974699999999 -91.178314 -10.663897
104.37681599999999 -89.859039 -15.964209
94.162567 -82.67675 -18.357281
94.21030400000001 -73.838837 -16.441343
104.492264 -68.522354 -11.338613
118.985363 -69.841545 -6.038312
128.64705800000002 -75.36061099999999 -14.594135999999999
128.613987 -81.46588100000001 -15.917732
121.511116 -85.13855699999999 -19.44264
111.49935500000001 -84.227203 -23.104097
104.443352 -79.265671 -24.757248
104.47640999999999 -73.160446 -23.433706
111.579163 -69.487762 -19.908741
121.591022 -70.399124 -16.247284
125.907272 -74.794861 -21.908058
125.88932 -78.106659 -22.625996
122.036366 -80.098869 -24.538057000000002
116.605576 -79.6045 -26.5242
112.77807999999999 -76.913155 -27.420938
112.796021 -73.60141 -26.702999
116.64891800000001 -71.60919200000001 -24.79089
122.079762 -72.103561 -22.804783
120.341053 -75.333267 -26.444934999999997
192.945702 63.898399 -1.9656
185.674301 48.287701 -2.2482
185.66500100000002 48.222198 1.5023
192.936298 63.832901 1.785
121.382799 70.869499 -1.9343
128.6541 86.480301 -1.6516
128.644699 86.414803 2.099
121.373501 70.804001 1.8163
159.9367 69.461403 -1.91
191.488899 66.002296 -1.9307
191.4795 65.936798 1.8199
159.9274 69.396004 1.8406
155.7606 70.946198 -1.8894
155.75130000000001 70.88069899999999 1.8613
131.3641 87.033997 2.1132
131.373501 87.09940300000001 -1.6374
159.0608 67.511398 3.8068
190.6129 64.0522 3.7861
183.7901 49.404301000000004 3.521
158.34109999999998 65.966301 3.7787
154.8847 68.996101 3.8274
154.1507 67.420303 3.7989
123.688999 70.532097 3.8148
130.4977 85.149399 4.0794
157.4845 64.151604 1.7456
182.933498 47.589401 1.4877
182.942902 47.6549 -2.2628
157.4938 64.217003 -2.005
153.29410000000001 65.605499 1.7658
153.3034 65.670998 -1.9848
122.841801 68.782799 -1.969
122.832399 68.7173 1.7816
158.3604 66.101501 -3.9712
183.809502 49.539501 -4.229
190.63230099999998 64.187401 -3.9638
159.08010000000002 67.646698 -3.9433
154.17000000000002 67.555603 -3.951
154.904 69.131401 -3.9225
130.517 85.284599 -3.6705
123.70840100000001 70.667397 -3.9352
168.313299 97.650803 0.0506
168.313499 97.651901 0.7427
168.796101 97.712898 0.5394
168.995899 97.7369 0.0498
168.7957 97.711502 -0.4394
168.313 97.64969599999999 -0.6415
167.830999 97.585999 -0.4381
167.631599 97.559601 0.0516
167.831301 97.587601 0.5407
150.0 34.093498 0.6921
150.4894 34.093498 0.4894
150.69209999999998 34.093498 0.0
150.4894 34.093498 -0.4894
150.0 34.093498 -0.6921
149.5106 34.093498 -0.4894
149.30790000000002 34.093498 0.0
149.5106 34.093498 0.4894
150.0 34.093498 0.0
150.2089 40.1884 0.6884
150.69729999999998 40.155201 0.486
150.8999 40.141701 -0.0032
150.6981 40.1558 -0.4928
150.21 40.189301 -0.6958
149.7216 40.2225 -0.4934
149.519 40.236 -0.0042
149.7208 40.221802000000004 0.4853
151.7319 51.490798999999996 0.6823
152.2121 51.3946 0.4805
152.4119 51.3549 -0.0085
152.2142 51.395 -0.4982
151.7348 51.491402 -0.7019
151.2545 51.587601 -0.5002
151.0547 51.6273 -0.0112
151.2525 51.587101000000004 0.4786
154.07580000000002 60.5839 0.6793
154.5433 60.437 0.4781
154.7382 60.376202 -0.0107
154.5464 60.437199 -0.5007
154.0803 60.584099 -0.7049
153.6128 60.730999 -0.5036
153.4179 60.791698 -0.0149
153.6097 60.730801 0.4751
157.4524 69.550003 0.6793
157.9013 69.35320300000001 0.4786
158.089 69.271599 -0.01
