68.05994799999999 4.526133 33.36557
69.159332 9.117398 31.661334999999998
69.336739 4.5492230000000005 31.145308
68.237396 -0.042005 32.849540999999995
65.112122 4.31355 31.618961
66.173824 8.715294 29.971634
66.351665 4.335975 29.463425
65.285488 -0.11021900000000001 31.11652
63.143288 4.110997 30.383358
64.090378 7.840903 28.904884000000003
64.288738 4.131679 28.391443
63.31028 0.090572 29.910296999999996
61.847153000000006 4.008236 29.472359
62.686531 7.177478999999999 28.200138
62.874736999999996 4.027961 27.738640000000004
62.014824 0.504062 29.065863
61.318111 3.973653 28.888916
62.054668 6.345141 27.983862
62.224918 3.997072 27.637157000000002
61.548866 1.320571 28.635693
61.756828000000006 3.991688 28.253142999999998
123.345501 -12.8719 39.577801
123.322001 -9.1822 39.5196
124.6814 -9.5012 38.9762
125.809799 -10.403 38.5369
126.512199 -11.7317 38.2775
126.666901 -13.2575 38.243
126.2474 -14.7167 38.439301
125.326099 -15.8569 38.832401000000004
124.062401 -16.4809 39.3545
122.6747 -16.4809 39.9151
121.402901 -15.8569 40.4175
120.4671 -14.7167 40.7747
120.028999 -13.2575 40.9249
120.164301 -11.7317 40.842201
120.849701 -10.403 40.540901
121.9666 -9.5012 40.073101
123.6516 -9.1664 40.335602
125.011101 -9.4854 39.792198
126.1395 -10.3872 39.352798
126.841801 -11.7159 39.093498
126.996599 -13.2418 39.058899
126.577101 -14.701 39.255199
125.6558 -15.8412 39.648399
124.392 -16.4652 40.170502
123.004299 -16.4652 40.731097999999996
121.732599 -15.8412 41.233501000000004
120.796801 -14.701 41.590697999999996
120.358601 -13.2418 41.740898
120.493999 -11.7159 41.658198999999996
121.1793 -10.3872 41.356899
122.296301 -9.4854 40.889
123.6752 -12.8561 40.393799
76.654499 -12.8719 39.577801
76.677999 -9.1822 39.5196
75.3186 -9.5012 38.9762
74.190201 -10.403 38.5369
73.487801 -11.7317 38.2775
73.333099 -13.2575 38.243
73.7526 -14.7167 38.439301
74.673901 -15.8569 38.832401000000004
75.937599 -16.4809 39.3545
77.3253 -16.4809 39.9151
78.597099 -15.8569 40.4175
79.5329 -14.7167 40.7747
79.971001 -13.2575 40.9249
79.835699 -11.7317 40.842201
79.150299 -10.403 40.540901
78.0334 -9.5012 40.073101
76.3484 -9.1664 40.335602
74.988899 -9.4854 39.792198
73.8605 -10.3872 39.352798
73.158199 -11.7159 39.093498
73.003401 -13.2418 39.058899
73.422899 -14.701 39.255199
74.3442 -15.8412 39.648399
75.608 -16.4652 40.170502
76.995701 -16.4652 40.731097999999996
78.267401 -15.8412 41.233501000000004
79.203199 -14.701 41.590697999999996
79.641399 -13.2418 41.740898
79.506001 -11.7159 41.658198999999996
78.8207 -10.3872 41.356899
77.703699 -9.4854 40.889
76.3248 -12.8561 40.393799
155.571854 -91.36715699999999 28.976583
151.624805 -92.161591 29.132057
151.49961100000002 -90.49533100000001 29.538079999999997
156.95110699999998 -92.972099 28.100596999999997
155.164612 -94.760048 27.210377
152.967186 -93.723625 28.279490000000003
160.027077 -93.468437 26.808994000000002
161.140793 -95.042496 24.847382999999997
158.158356 -95.24311800000001 25.953304
162.997906 -92.565331 25.858349
166.052582 -92.843361 23.427212
164.032204 -94.163528 23.922153
164.123314 -90.79184000000001 25.805523
167.022713 -89.450958 23.781797
167.14790299999999 -91.11727900000001 23.375799
162.744102 -89.18690500000001 26.681509000000002
163.48299 -86.85257 25.703492999999998
165.680367 -87.88891600000001 24.634363
159.668152 -88.690659 27.97315
157.506805 -86.570267 28.066553000000003
160.489265 -86.369591 26.960603999999996
156.697289 -89.593765 28.923797999999998
152.594955 -88.769348 29.486704
154.61535600000002 -87.44923399999999 28.991787
146.579025 -89.736069 29.116478000000004
146.771461 -92.297493 28.492346
141.332794 -92.111343 26.818890000000003
141.075874 -88.691399 27.652191
148.715542 -94.5597 27.257628999999998
152.093445 -96.15287 25.614182
148.41463099999999 -97.231102 22.991253
143.904587 -95.104004 25.185509
156.429115 -96.852448 23.793636
161.01376 -96.544037 22.093607000000002
160.2715 -97.74472 18.313053
154.150261 -98.156525 20.582869
165.201233 -95.27109499999999 20.753662
168.30697600000002 -93.241737 19.992847
169.95774799999998 -93.351303 15.524666
165.811081 -96.060783 16.540457
169.89328799999998 -90.741989 19.918407000000002
169.70085899999998 -88.180527 20.542519
171.799377 -86.624512 16.259508
172.05629 -90.04445600000001 15.426210999999999
167.756821 -85.91832 21.777217999999998
164.378967 -84.325211 23.420662
164.717621 -81.504791 20.087073999999998
169.22761500000001 -83.631874 17.89286
160.043316 -83.62571700000001 25.241239999999998
155.458641 -83.934189 26.94132
152.86073299999998 -80.991226 24.76535
158.982002 -80.57940699999999 22.495473999999998
151.27113 -85.207115 28.281282
148.165356 -87.23640400000001 29.042071999999997
143.174419 -85.38458299999999 27.553751000000002
147.32111700000002 -82.675156 26.537978999999996
135.542336 -87.422546 25.154991
135.8554 -91.589706 24.139648
130.84620999999999 -90.763908 20.482244
130.513084 -86.013451 21.63052
138.98909 -95.23620600000001 22.149429
144.484486 -97.82800300000001 19.475792000000002
140.588684 -97.86466999999999 15.204319
134.37711 -94.91705300000001 18.230247
151.473225 -98.955574 16.541222
158.931824 -98.453781 13.775476000000001
156.950798 -98.559067 8.751519
148.499416 -99.140976 11.882589
165.681671 -96.401939 11.615591
170.734283 -93.100533 10.377877
170.347778 -92.44049100000001 4.903891000000001
164.607338 -96.210953 6.305901
173.29130600000002 -89.07124300000001 10.257916
172.978271 -84.904129 11.273267
172.932007 -83.093086 5.915304
173.26507600000002 -87.843475 4.767015
169.844627 -81.25766 13.263461999999999
164.34927399999998 -78.66584 15.937056
163.189651 -75.992317 11.193219000000001
169.401184 -78.939964 8.167303
157.360554 -77.538246 18.871624
149.901939 -78.04001600000001 21.637404999999998
146.82756799999999 -75.297791 17.645988
155.278954 -74.71595 14.514933
143.152039 -80.09184300000001 23.797314
138.099369 -83.393227 25.035027
133.430412 -81.41636700000001 21.493628
139.170956 -77.645882 20.091606
126.50528 -84.570755 17.080292
126.772459 -89.710037 15.873957
123.75053 -88.41082800000001 10.457373
123.610691 -83.11545600000001 11.648163
130.43000999999998 -94.1884 13.50336
136.942272 -97.35000600000001 10.315659
133.691498 -96.221809 4.950519
127.28326 -93.003822 8.11025
145.280205 -98.69522099999999 6.814535
154.22274399999998 -98.027077 3.5127230000000003
150.885334 -96.811745 -1.800339
141.962608 -97.556259 1.477449
162.356827 -95.451202 0.932004
168.49124899999998 -91.344849 -0.549676
165.260292 -89.835243 -5.840566
159.049774 -94.105988 -4.3648690000000006
171.656677 -86.35683399999999 -0.698209
171.389557 -81.217621 0.508146
168.39567599999998 -79.379013 -4.803445
168.53547700000001 -84.674324 -5.994258
167.732071 -76.739273 2.878764
161.219849 -73.577652 6.066476000000001
158.454758 -71.568039 0.70344
164.86298399999998 -74.786041 -2.456301
152.881943 -72.23234599999999 9.567575
143.9394 -72.900391 12.869342999999999
141.260895 -70.977921 7.454232000000001
150.18364 -70.233513 4.176489
135.805252 -75.47623399999999 15.450041
129.670738 -79.582649 16.931735999999997
126.88587 -77.95446 11.49445
133.096416 -73.683655 10.018741
121.495695 -81.582962 5.62033
121.545938 -86.755661 4.490375
120.13234299999999 -84.805748 -1.6799830000000002
120.10643999999999 -80.023422 -0.643197
124.846436 -91.228638 2.2584779999999998
130.91382199999998 -94.346817 -0.7485069999999999
128.71167 -91.814758 -6.490088
123.147964 -88.937912 -3.72897
138.78931 -95.617455 -4.055447
147.319572 -94.854462 -7.17805
143.78656 -92.267792 -12.395131
135.944263 -92.981689 -9.527059
155.156746 -92.178444 -9.622873
161.15311400000002 -87.981323 -11.031877
156.526455 -85.89948299999999 -15.936007
150.999382 -89.785904 -14.641085
164.361107 -82.926285 -11.182425
164.310913 -77.75361600000001 -10.052472999999999
159.468575 -76.44036899999999 -15.038557999999998
159.494408 -81.222672 -16.075298
161.010445 -73.28067800000001 -7.820567
154.943058 -70.16250600000001 -4.8135639999999995
150.889305 -69.431435 -10.228428
156.453003 -72.30825 -12.989578
147.067535 -68.89181500000001 -1.506635
138.53722 -69.654724 1.6159370000000002
135.814278 -68.978302 -4.323394
143.656654 -68.264481 -7.191447999999999
130.700016 -72.330704 4.060751
124.70365699999999 -76.52787 5.469772
123.07433900000001 -75.346588 -0.7824800000000001
128.601404 -71.46015899999999 -2.077433
119.668833 -78.601776 -6.708599
119.691544 -82.794075 -7.617486
120.163467 -80.900185 -12.963284
120.1446 -77.416557 -12.208037
122.335123 -86.416428 -9.413686
127.212425 -88.938354 -11.834146
126.41303400000001 -86.005821 -16.467136
122.36018200000001 -83.91020999999999 -14.455844
133.552719 -89.961327 -14.496422
140.427483 -89.335526 -17.010641
137.394218 -86.335861 -20.768579000000003
131.681568 -86.855873 -18.679371
146.75042 -87.159836 -18.979494
151.595566 -83.752899 -20.114651000000002
146.674427 -81.69693000000001 -23.347891
142.648315 -84.52795400000001 -22.404617000000002
154.197334 -79.653076 -20.236763
154.17469 -75.46079300000001 -19.327938
148.81752 -74.806549 -22.69416
148.836365 -78.290161 -23.449360000000002
151.531174 -71.83847 -17.531751999999997
146.6539 -69.316574 -15.111251000000001
142.568069 -69.700935 -19.190275
146.620865 -71.796547 -21.201604999999997
140.31356399999999 -68.293602 -12.448953
133.438705 -68.91935699999999 -9.934743
131.58680900000002 -69.37089499999999 -14.888810999999999
137.29953 -68.850891 -16.978018
127.11570900000001 -71.095016 -7.965876
122.270557 -74.501953 -6.830688
122.306532 -74.009789 -12.309483
126.332657 -71.178787 -13.252768
121.231272 -76.499954 -16.839657
121.246166 -79.250168 -17.435888000000002
122.760189 -77.90052 -20.906116
122.749172 -75.866928 -20.465263
122.980412 -81.626488 -18.614204
126.180023 -83.280899 -20.202049
126.42034000000001 -80.897247 -22.959564
124.05444299999999 -79.673935 -21.785469
130.339363 -83.951988 -21.948534
134.849304 -83.541451 -23.597897
132.859154 -81.094498 -25.482526999999997
129.52439099999998 -81.398064 -24.262941
138.997238 -82.114166 -24.889495999999998
142.175728 -79.879166 -25.634182
138.30495100000002 -78.376724 -26.997065999999997
135.954689 -80.02934300000001 -26.446428000000004
143.882496 -77.189644 -25.714287
143.86759899999998 -74.439453 -25.11808
139.567673 -74.336014 -26.616003000000003
139.57869 -76.369576 -27.05685
142.133396 -72.063148 -23.939756
138.933853 -70.408722 -22.351879
135.9076 -71.339294 -24.56251
138.273449 -72.562607 -25.736635
134.77452499999998 -69.737648 -20.605379
130.264532 -70.148193 -18.956024
129.468758 -71.142052 -22.039558
132.803558 -70.83847800000001 -23.259125
126.11655400000001 -71.575462 -17.664431
122.938053 -73.81043199999999 -16.919746
124.022919 -73.859779 -20.52504
126.373192 -72.20719100000001 -21.075672
124.641413 -75.515213 -23.110313
124.648582 -76.838127 -23.397095
126.759951 -75.72649399999999 -24.931032000000002
125.542263 -78.06266 -24.004274
127.081354 -78.858459 -24.768059
127.678175 -76.984657 -25.55489
129.22468 -79.204262 -25.668034
131.39403199999998 -79.00679000000001 -26.461409000000003
129.880369 -77.339958 -26.479582
133.531467 -78.271309 -27.126974
135.060379 -77.196236 -27.48518
132.076515 -76.584274 -27.163427000000002
135.939896 -75.81031 -27.526460999999998
135.932728 -74.487411 -27.239679
132.980179 -75.160286 -27.205842999999998
135.03907 -73.262901 -26.632481
133.500004 -72.467102 -25.868675
132.061974 -73.902138 -26.581965999999998
131.356682 -72.1213 -24.968697
129.18730499999998 -72.318779 -24.175342999999998
129.859781 -73.546837 -25.657273999999997
127.049847 -73.054237 -23.509794
125.520927 -74.129288 -23.151594
127.66361599999999 -74.30250500000001 -24.973446
48.500389 -90.49533100000001 29.538079999999997
48.375195 -92.161591 29.132057
44.428146 -91.36715699999999 28.976583
47.032814 -93.723625 28.279490000000003
44.835388 -94.760048 27.210377
43.04889300000001 -92.972099 28.100596999999997
41.841643999999995 -95.24311800000001 25.953304
38.859207 -95.042496 24.847382999999997
39.972923 -93.468437 26.808994000000002
35.96779599999999 -94.163528 23.922153
33.947418 -92.843361 23.427212
37.00209399999999 -92.565331 25.858349
32.852097 -91.11727900000001 23.375799
32.977287000000004 -89.450958 23.781797
35.87668599999999 -90.79184000000001 25.805523
34.319632999999996 -87.88891600000001 24.634363
36.51701 -86.85257 25.703492999999998
37.255897999999995 -89.18690500000001 26.681509000000002
39.510735 -86.369591 26.960603999999996
42.49319499999999 -86.570267 28.066553000000003
40.331848 -88.690659 27.97315
45.384643999999994 -87.44923399999999 28.991787
47.405044999999994 -88.769348 29.486704
43.302710999999995 -89.593765 28.923797999999998
58.924126 -88.691399 27.652191
58.667206 -92.111343 26.818890000000003
53.228539000000005 -92.297493 28.492346
53.420975 -89.736069 29.116478000000004
56.095413 -95.104004 25.185509
51.585369 -97.231102 22.991253
47.906555 -96.15287 25.614182
51.284458 -94.5597 27.257628999999998
45.849739 -98.156525 20.582869
39.7285 -97.74472 18.313053
38.98624 -96.544037 22.093607000000002
43.570885 -96.852448 23.793636
34.188919 -96.060783 16.540457
30.042252000000005 -93.351303 15.524666
31.693023999999994 -93.241737 19.992847
34.798767 -95.27109499999999 20.753662
27.943709999999996 -90.04445600000001 15.426210999999999
28.200622999999993 -86.624512 16.259508
30.299141000000006 -88.180527 20.542519
30.106712 -90.741989 19.918407000000002
30.772385 -83.631874 17.89286
35.282379000000006 -81.504791 20.087073999999998
35.621033 -84.325211 23.420662
32.243179 -85.91832 21.777217999999998
41.017998 -80.57940699999999 22.495473999999998
47.139267000000004 -80.991226 24.76535
44.541359 -83.934189 26.94132
39.956688 -83.62571700000001 25.241239999999998
52.678883 -82.675156 26.537978999999996
56.825581 -85.38458299999999 27.553751000000002
51.834644 -87.23640400000001 29.042071999999997
48.72887 -85.207115 28.281282
69.486916 -86.013451 21.63052
69.15379 -90.763908 20.482244
64.1446 -91.589706 24.139648
64.457664 -87.422546 25.154991
65.62289000000001 -94.91705300000001 18.230247
59.411316 -97.86466999999999 15.204319
55.515514 -97.82800300000001 19.475792000000002
61.010909999999996 -95.23620600000001 22.149429
51.500584 -99.140976 11.882589
43.049202 -98.559067 8.751519
41.068176 -98.453781 13.775476000000001
48.526775 -98.955574 16.541222
35.392662 -96.210953 6.305901
29.652221999999995 -92.44049100000001 4.903891000000001
29.26571700000001 -93.100533 10.377877
34.318329000000006 -96.401939 11.615591
26.734923999999992 -87.843475 4.767015
27.067993 -83.093086 5.915304
27.021729000000008 -84.904129 11.273267
26.708693999999994 -89.07124300000001 10.257916
30.598816 -78.939964 8.167303
36.810349 -75.992317 11.193219000000001
35.650726000000006 -78.66584 15.937056
30.155372999999997 -81.25766 13.263461999999999
44.721045999999994 -74.71595 14.514933
53.172432 -75.297791 17.645988
50.098061 -78.04001600000001 21.637404999999998
42.639446 -77.538246 18.871624
60.829044 -77.645882 20.091606
66.56958800000001 -81.41636700000001 21.493628
61.900631 -83.393227 25.035027
56.847961 -80.09184300000001 23.797314
76.389309 -83.11545600000001 11.648163
76.24947 -88.41082800000001 10.457373
73.227541 -89.710037 15.873957
73.49472 -84.570755 17.080292
72.71674 -93.003822 8.11025
66.308502 -96.221809 4.950519
63.057728000000004 -97.35000600000001 10.315659
69.56999 -94.1884 13.50336
58.037392 -97.556259 1.477449
49.114666 -96.811745 -1.800339
45.77725600000001 -98.027077 3.5127230000000003
54.719795 -98.69522099999999 6.814535
40.950226 -94.105988 -4.3648690000000006
34.73970799999999 -89.835243 -5.840566
31.508751000000004 -91.344849 -0.549676
37.643173 -95.451202 0.932004
31.464523 -84.674324 -5.994258
31.604324000000005 -79.379013 -4.803445
28.610443000000004 -81.217621 0.508146
28.343322999999998 -86.35683399999999 -0.698209
35.137016 -74.786041 -2.456301
41.545242 -71.568039 0.70344
38.780151000000004 -73.577652 6.066476000000001
32.26792900000001 -76.739273 2.878764
49.816359999999996 -70.233513 4.176489
58.739105 -70.977921 7.454232000000001
56.0606 -72.900391 12.869342999999999
47.11805699999999 -72.23234599999999 9.567575
66.903584 -73.683655 10.018741
73.11413 -77.95446 11.49445
70.329262 -79.582649 16.931735999999997
64.194748 -75.47623399999999 15.450041
79.89356000000001 -80.023422 -0.643197
79.86765700000001 -84.805748 -1.6799830000000002
78.454062 -86.755661 4.490375
78.504305 -81.582962 5.62033
76.852036 -88.937912 -3.72897
71.28833 -91.814758 -6.490088
69.086178 -94.346817 -0.7485069999999999
75.153564 -91.228638 2.2584779999999998
64.055737 -92.981689 -9.527059
56.213440000000006 -92.267792 -12.395131
52.680428000000006 -94.854462 -7.17805
61.21069 -95.617455 -4.055447
49.000617999999996 -89.785904 -14.641085
43.473544999999994 -85.89948299999999 -15.936007
38.846886 -87.981323 -11.031877
44.843254 -92.178444 -9.622873
40.50559200000001 -81.222672 -16.075298
40.531425 -76.44036899999999 -15.038557999999998
35.689087 -77.75361600000001 -10.052472999999999
35.63889300000001 -82.926285 -11.182425
43.546997 -72.30825 -12.989578
49.110699 -69.431435 -10.228428
45.05694200000001 -70.16250600000001 -4.8135639999999995
38.989555 -73.28067800000001 -7.820567
56.343346000000004 -68.264481 -7.191447999999999
64.185722 -68.978302 -4.323394
61.46278 -69.654724 1.6159370000000002
52.932465 -68.89181500000001 -1.506635
71.398596 -71.46015899999999 -2.077433
76.92566099999999 -75.346588 -0.7824800000000001
75.29634300000001 -76.52787 5.469772
69.299984 -72.330704 4.060751
79.8554 -77.416557 -12.208037
79.836533 -80.900185 -12.963284
80.308456 -82.794075 -7.617486
80.331167 -78.601776 -6.708599
77.63981799999999 -83.91020999999999 -14.455844
73.58696599999999 -86.005821 -16.467136
72.787575 -88.938354 -11.834146
77.664877 -86.416428 -9.413686
68.318432 -86.855873 -18.679371
62.605782 -86.335861 -20.768579000000003
59.572517 -89.335526 -17.010641
66.447281 -89.961327 -14.496422
57.351684999999996 -84.52795400000001 -22.404617000000002
53.325573 -81.69693000000001 -23.347891
48.404434 -83.752899 -20.114651000000002
53.24958 -87.159836 -18.979494
51.163635 -78.290161 -23.449360000000002
51.18248 -74.806549 -22.69416
45.825309999999995 -75.46079300000001 -19.327938
45.802666 -79.653076 -20.236763
53.379135 -71.796547 -21.201604999999997
57.431931 -69.700935 -19.190275
53.3461 -69.316574 -15.111251000000001
48.468826 -71.83847 -17.531751999999997
62.70047 -68.850891 -16.978018
68.413191 -69.37089499999999 -14.888810999999999
66.561295 -68.91935699999999 -9.934743
59.686436 -68.293602 -12.448953
73.667343 -71.178787 -13.252768
77.693468 -74.009789 -12.309483
77.729443 -74.501953 -6.830688
72.88429099999999 -71.095016 -7.965876
77.250828 -75.866928 -20.465263
77.239811 -77.90052 -20.906116
78.753834 -79.250168 -17.435888000000002
78.768728 -76.499954 -16.839657
75.94555700000001 -79.673935 -21.785469
73.57965999999999 -80.897247 -22.959564
73.819977 -83.280899 -20.202049
77.019588 -81.626488 -18.614204
70.475609 -81.398064 -24.262941
67.14084600000001 -81.094498 -25.482526999999997
65.15069600000001 -83.541451 -23.597897
69.66063700000001 -83.951988 -21.948534
64.045311 -80.02934300000001 -26.446428000000004
61.695049 -78.376724 -26.997065999999997
57.824272 -79.879166 -25.634182
61.002762 -82.114166 -24.889495999999998
60.42131 -76.369576 -27.05685
60.432327 -74.336014 -26.616003000000003
56.132401 -74.439453 -25.11808
56.117504 -77.189644 -25.714287
61.726551 -72.562607 -25.736635
64.0924 -71.339294 -24.56251
61.066146999999994 -70.408722 -22.351879
57.866603999999995 -72.063148 -23.939756
67.19644199999999 -70.83847800000001 -23.259125
70.53124199999999 -71.142044 -22.039558
69.735468 -70.148193 -18.956024
65.225475 -69.737648 -20.605379
73.626808 -72.207184 -21.075674
75.977081 -73.859779 -20.52504
77.061947 -73.81043199999999 -16.919746
73.88344599999999 -71.575462 -17.664431
73.240049 -75.72649399999999 -24.931032000000002
75.351418 -76.838127 -23.397095
75.358587 -75.515213 -23.110313
72.321825 -76.984657 -25.55489
72.918646 -78.858459 -24.768059
74.457737 -78.06266 -24.004274
70.119631 -77.339958 -26.479582
68.605968 -79.00679000000001 -26.461409000000003
70.77532 -79.204262 -25.668034
67.923485 -76.584274 -27.163427000000002
64.939621 -77.196236 -27.48518
66.46853300000001 -78.271309 -27.126974
67.01982100000001 -75.160286 -27.205842999999998
64.067272 -74.487411 -27.239679
64.060104 -75.81031 -27.526460999999998
67.93802600000001 -73.902138 -26.581965999999998
66.49999600000001 -72.467102 -25.868675
64.96092999999999 -73.262901 -26.632481
70.140219 -73.546837 -25.657273999999997
70.812695 -72.318771 -24.175342999999998
68.643318 -72.1213 -24.968697
72.33638400000001 -74.30250500000001 -24.973446
74.479073 -74.129288 -23.151594
72.950153 -73.054237 -23.509795999999998
156.829979 -92.054001 28.502384000000003
153.717575 -91.889587 29.122152000000003
153.640484 -90.863602 29.372159999999997
156.720734 -90.599991 28.856688000000002
149.305462 -92.268959 28.943167
151.2658 -91.339127 29.411064
152.288105 -92.957993 28.741415000000003
152.03855099999998 -89.636604 29.550746999999998
149.14665200000002 -90.15520500000001 29.458225
158.747486 -92.958389 27.569461999999998
156.2808 -93.935951 27.695251000000003
154.927742 -93.297775 28.353556
153.727257 -95.48536700000001 26.549009
153.860027 -94.357849 27.763428
156.668274 -95.023911 26.610336
150.939697 -94.170609 27.905234999999998
161.35000200000002 -92.78331800000001 26.604412
160.816105 -94.247917 25.881023000000003
158.979679 -94.371445 26.561991
161.155293 -95.818947 23.615702
159.645611 -95.291412 25.334061
162.613216 -94.623993 24.40588
157.371902 -96.07345600000001 25.018621
163.11300699999998 -91.63131700000001 26.172520000000002
164.66677099999998 -92.642624 24.742161
163.422729 -93.45552099999999 25.046920999999998
167.238319 -93.07418100000001 21.861458
165.23343699999998 -93.592766 23.546
166.640457 -91.99247700000001 23.419307999999997
164.675362 -94.748886 22.489313
163.003765 -90.177254 26.526802000000004
165.57711799999998 -90.060516 24.945801
165.654205 -91.086548 24.695808
168.412987 -88.859009 22.313906
167.35021999999998 -90.257019 23.446644
166.390915 -88.670959 24.228592000000003
168.571793 -90.972824 21.798872
161.086288 -89.27291899999999 27.459743
163.013962 -88.014198 26.372715000000003
164.366989 -88.652328 25.714397
163.991291 -85.642685 24.708069000000002
164.756058 -87.238297 25.094275
162.010834 -86.605179 26.359707
166.778793 -86.957352 23.35183
158.483765 -89.448036 28.424814
158.478664 -87.702362 28.186996
160.315102 -87.578796 27.506012
156.563244 -85.30925 27.641451
158.97051199999999 -86.304916 27.523709999999998
156.06584900000001 -87.005196 28.564217
160.346664 -85.054688 26.238490999999996
154.627945 -89.30761700000001 29.325844
155.872002 -88.494759 29.021101
150.48014799999999 -88.053947 29.395678999999998
153.382622 -88.003555 29.311777000000003
153.043137 -86.379311 28.767849
146.425785 -91.031708 28.890133000000002
143.865761 -89.245583 28.514059000000003
147.176956 -88.455872 29.168190000000003
147.55505 -93.48848000000001 27.941914
144.091133 -92.245514 27.783089
138.564774 -91.893303 25.603245
140.912437 -90.42100500000001 27.343778999999998
142.331867 -93.694862 26.093981
141.828175 -86.99007399999999 27.727669
138.278389 -88.081161 26.532095
150.234489 -95.463669 26.471163
146.351555 -94.875847 26.347458000000003
154.191845 -96.61868299999999 24.712927
150.307724 -96.74173 24.422672
146.458706 -97.600143 21.3367
145.961868 -96.29675300000001 24.136817999999998
151.17379 -97.865036 21.792154
141.431484 -95.229141 23.78257
158.72863 -96.834213 22.904476000000003
155.348923 -97.55513 22.305876
163.1996 -96.012718 21.372760999999997
160.718422 -97.19390899999999 20.314817
159.67522400000001 -98.17263 16.122032
157.223133 -98.113708 19.408224
163.174454 -97.057709 17.342188
152.85205100000002 -98.63166 18.652142
166.932434 -94.340363 20.279346
165.587311 -95.713837 18.756832
169.301659 -92.025513 19.877941
169.22473100000002 -93.33709 17.865783999999998
170.472214 -93.275429 13.013897
168.09948 -94.807472 15.927926999999999
171.303986 -91.745789 15.350739
165.850037 -96.29559300000001 14.146166000000001
170.04023 -89.443039 20.133511
171.069183 -90.430595 17.779239999999998
168.923584 -86.99282099999999 21.104174
170.843819 -87.43064100000001 18.510199
172.525024 -85.77729000000001 13.833010999999999
172.219727 -88.31485 15.734622
170.800316 -85.04100799999999 16.984409
172.811394 -89.589401 12.904158
166.231606 -85.011093 22.552448000000002
168.583435 -84.80032299999999 19.945805
162.28688 -83.862732 24.333157999999997
164.62731200000002 -82.93447900000001 21.870567
164.63118 -80.07047299999999 18.099474
167.170364 -82.439133 18.941526
161.958473 -80.87088 21.286169
169.65835600000003 -82.44148299999999 15.653654999999999
157.737495 -83.640701 26.119196
159.586128 -82.12114 23.987387
153.279079 -84.468796 27.673414
154.216602 -82.482407 25.978504
151.41464200000001 -79.49799300000001 23.314201
155.909119 -80.622238 23.670147
149.957764 -81.678253 25.73624
158.237843 -79.038956 20.784039
149.533615 -86.134529 28.744358000000002
149.347675 -83.962463 27.536516
145.710228 -86.33914200000001 28.427542
140.617584 -84.395134 26.422359000000004
145.0327 -83.928436 27.150501000000002
145.239792 -81.375015 25.2901
135.343197 -89.530052 24.779204999999997
132.93234999999999 -86.72886700000001 23.52107
136.459 -85.34949499999999 25.246948
137.072762 -93.519196 23.256372
133.263077 -91.210075 22.431510999999997
128.663202 -90.260727 18.295256
130.276634 -88.416428 21.205688000000002
132.215229 -92.962067 19.482870000000002
131.562149 -83.64881899999999 21.73406
128.349178 -85.289642 19.483532
141.495846 -96.689537 20.871634
136.622574 -95.130432 20.295513
147.84645799999998 -98.600418 18.014719
142.518852 -97.91581 17.42588
138.720867 -97.675697 12.828461
137.20916 -96.570663 16.784142000000003
144.393002 -98.740845 13.550547
132.297863 -94.601303 15.963054000000001
155.217453 -98.903389 15.109929999999999
150.020206 -99.126076 14.276056
162.469006 -97.616661 12.592486
158.028084 -98.58399200000001 11.307323
155.686752 -98.374825 6.142005
152.740993 -99.076546 10.262298
160.961891 -97.600037 7.412105
146.917274 -98.998085 9.386766999999999
168.470032 -94.874825 10.869239
165.27707700000002 -96.375252 8.988811
172.374641 -91.144272 10.165954
170.705597 -92.823318 7.660058
169.622452 -91.948761 2.152829
167.773758 -94.466278 5.4606
172.21601099999998 -90.208069 4.6634660000000006
163.64355899999998 -95.904457 3.6069400000000003
173.490456 -86.96376 10.633707000000001
173.455902 -88.489449 7.531024
171.760933 -82.974663 12.156538000000001
173.125221 -84.008301 8.620593
172.364746 -82.161766 3.197717
173.501549 -85.440536 5.191854
171.563026 -80.894951 6.914681
172.678711 -87.13278199999999 2.009425
167.337891 -79.804321 14.541235
169.765785 -80.087967 10.756578
160.987312 -77.893417 17.398119
163.869553 -77.302559 13.626183
162.307205 -74.746788 8.664529
166.56916 -77.286346 9.613404
159.385353 -75.116112 12.846983999999999
168.730164 -77.821213 5.529932
153.616318 -77.590416 20.302931
156.368225 -76.09225500000001 16.775997
146.364735 -78.87712900000001 22.820412
148.36034 -76.634293 19.744741
145.34134699999998 -74.047493 15.350928
151.03737999999998 -74.780342 16.135216
142.816448 -76.256798 18.985401
154.110828 -73.424324 12.106200999999999
140.363651 -81.618942 24.543667000000003
141.111286 -78.843002 22.063267
135.682678 -82.39494300000001 23.392025
131.405464 -80.47357199999999 19.340107
136.004478 -79.390564 20.936913
137.384468 -76.517838 17.885981
126.212431 -87.172256 16.634570999999998
124.939684 -83.84871700000001 14.456578
127.656288 -82.00705 17.18729
128.18008 -92.082588 14.822277
125.144672 -89.098007 13.250584
122.560722 -87.634651 7.526557
123.255116 -85.798645 11.20907
125.094166 -90.847412 9.416592
124.820021 -80.465866 11.75113
122.476595 -82.3629 8.690823
133.393616 -95.965027 11.980167
128.762241 -93.66152199999999 10.87711
140.947346 -98.280884 8.572794
135.262589 -96.870926 7.683737
132.23868199999998 -95.385994 2.13383
130.19123100000002 -94.816475 6.600757000000001
137.657486 -97.156258 3.221947
125.981758 -92.198471 5.228724
149.764214 -98.606216 5.106103
143.618538 -98.21905500000001 4.175044000000001
158.47916 -96.971008 2.099615
152.606396 -97.508492 0.864874
149.10718500000002 -95.929512 -4.481714
146.430637 -97.436516 -0.218229
155.150459 -95.696663 -3.204134
140.342758 -96.693497 -1.269099
165.734573 -93.54878199999999 0.039152
160.805958 -94.851585 -1.723675
170.505669 -88.92049399999999 -0.805218
167.016434 -90.637436 -3.211512
163.285091 -88.946968 -8.444725
162.460609 -92.124062 -5.253394999999999
167.326141 -87.323883 -6.097236
157.147099 -93.214813 -6.996345
171.949554 -83.755371 -0.25247800000000004
170.25645400000002 -85.531921 -3.363549
169.98197199999998 -78.845085 1.559836
170.051514 -80.282684 -2.157532
166.467117 -78.52864100000001 -7.433717
168.89106800000002 -81.991173 -5.555154
167.052063 -76.942444 -3.762654
166.551208 -83.800354 -8.597996
164.768486 -74.96264599999999 4.401965000000001
166.43399 -75.7192 0.215964
157.21479 -72.64672900000001 7.809334
159.93367 -72.509773 3.4093489999999997
156.789192 -70.777328 -2.0409610000000002
161.955021 -72.973389 -0.9468
154.48877 -70.63356 2.432007
163.046112 -73.964851 -5.135867
148.397934 -72.321297 11.275984
151.57773600000002 -71.16156 6.918017999999999
139.682961 -73.956436 14.282434
142.589867 -71.872017 10.228141
139.92063100000001 -70.233643 4.574528
145.715603 -70.35320300000001 5.8721440000000005
136.995754 -72.092972 8.858011
148.68509699999998 -69.469749 1.361951
132.42745200000002 -77.378677 16.342897
134.390255 -74.5289 12.816668
128.179712 -78.743111 14.304517
125.74269100000001 -77.21620899999999 8.537535
129.685562 -75.665604 10.907269
131.880688 -72.948318 7.089141000000001
121.114038 -84.205696 5.204256
120.69623 -80.796265 2.490915
122.691904 -78.989632 5.716276000000001
122.790401 -89.13069899999999 3.501009
120.728903 -85.802986 1.403353
119.77897999999999 -83.793068 -4.7051050000000005
119.74542 -82.448624 -1.024823
121.266693 -87.000328 -2.588193
121.215908 -77.624588 -0.555589
119.75456 -79.285057 -3.727778
127.594193 -92.98786899999999 0.822176
123.895702 -90.129913 -0.745687
134.685478 -95.243881 -2.3941790000000003
129.732845 -93.14337900000001 -3.641483
127.866222 -90.40005500000001 -9.239312
125.666256 -90.561661 -5.04778
132.174305 -92.640381 -8.001358999999999
122.621635 -87.68821700000001 -6.63657
143.056835 -95.48262 -5.67063
137.317928 -94.367172 -6.826473
151.409039 -93.748039 -8.516024
145.54014999999998 -93.622063 -9.834228
142.076454 -90.827118 -14.805641
139.866646 -92.852791 -11.010533
147.549103 -91.240799 -13.624198999999999
134.683975 -91.500061 -12.102081
158.444252 -90.228577 -10.470767
153.100311 -91.02583299999999 -12.189453
163.164879 -85.519592 -11.278372000000001
158.891266 -86.958694 -13.547234
154.085587 -84.824089 -18.143407999999997
154.028221 -87.979874 -15.420212
158.384907 -83.62149000000001 -16.162893
148.875553 -88.487595 -16.922764
164.74279 -80.303574 -10.766353
161.997929 -82.063324 -13.693029999999998
163.066467 -75.378601 -9.063106
161.965317 -77.056625 -12.605494
156.858948 -75.907524 -17.297445
159.855461 -78.797478 -15.693695000000002
158.334255 -74.245804 -14.130362
156.883293 -80.415527 -18.274714000000003
158.262695 -71.521454 -6.3842550000000005
158.798553 -72.729736 -10.456453
151.171391 -69.265427 -3.1678919999999997
152.961411 -69.716301 -7.560633
148.771782 -69.300613 -12.763213
153.934723 -70.684517 -11.670753
147.426651 -68.605812 -8.717145
154.016354 -72.012421 -15.365993
142.799984 -69.026604 0.10853299999999999
145.376282 -68.49247700000001 -4.375642
134.447735 -70.761108 2.9539009999999997
137.153992 -69.237495 -1.367913
134.561405 -68.873474 -7.19688
139.73423 -68.393341 -5.7079830000000005
132.051701 -70.00527199999999 -3.094329
141.953976 -68.2006 -9.900426
127.41251 -74.280594 4.908653
129.593792 -71.833694 0.9873120000000001
123.802845 -75.900856 2.3451169999999997
122.552216 -74.87648 -3.8590660000000003
125.57256100000001 -73.26619000000001 -1.298289
127.76224500000001 -71.212975 -5.079743
119.352356 -80.72776800000001 -7.0431490000000005
119.811449 -77.9776 -9.547930000000001
120.641418 -76.498901 -6.631792999999999
120.685947 -84.717896 -8.413651
119.83228700000001 -81.824524 -10.381941000000001
120.647343 -80.036812 -15.326327
119.881618 -79.183167 -12.486034
120.989779 -82.498802 -13.624861
120.952782 -75.669159 -12.144213
120.630478 -76.922668 -14.651191
124.542728 -87.839851 -10.569786
122.258085 -85.14846 -12.030161999999999
130.24786799999998 -89.66211700000001 -13.158959
126.733589 -87.462616 -14.251213
126.23407399999999 -84.60092900000001 -18.458542
124.19462 -85.093018 -15.416510999999998
128.935369 -86.607239 -17.567997000000002
122.611071 -82.72758499999999 -16.660576000000002
136.991188 -89.848343 -15.796870000000002
132.551559 -88.401321 -16.694159
143.725822 -88.435234 -18.088070000000002
138.859966 -87.82708000000001 -19.001247
136.05056 -84.895958 -22.303757
134.538795 -86.761993 -19.759987
140.135002 -85.587761 -21.663879
130.943813 -85.360817 -20.436135999999998
149.405567 -85.57663000000001 -19.662495
144.661999 -85.830627 -20.807901
153.224724 -81.755951 -20.313547
149.10798599999998 -82.70436099999999 -21.849543
144.346478 -80.74904599999999 -24.609501
144.85463 -83.212372 -22.972164000000003
148.028179 -80.037552 -23.513166000000002
140.747387 -83.2798 -23.766272
154.51384000000002 -77.52709200000001 -19.902245
151.495399 -78.942299 -21.961594
153.180321 -73.536987 -18.531792000000003
151.474609 -75.09539000000001 -21.12764
146.262245 -74.589493 -24.025105
149.099358 -76.52356 -23.171387
147.99123400000002 -73.20794699999999 -22.032595
146.279106 -77.703613 -24.700207000000002
149.323586 -70.415062 -16.375632999999997
149.04887 -71.771484 -19.479429
143.618446 -68.59281899999999 -13.786419
144.57341 -69.457336 -17.258339000000003
140.675632 -70.025391 -20.892857
144.786461 -70.613739 -20.240921
140.045746 -69.099518 -18.089397
144.298569 -71.89874300000001 -22.690855
136.875053 -68.406563 -11.148508
138.755417 -68.51864599999999 -14.815369
130.14032600000002 -69.819626 -8.857313000000001
132.446926 -69.092865 -12.508286
130.859097 -69.73037 -17.047623
134.442272 -68.944771 -15.897401
128.845989 -70.118988 -13.993511999999999
135.9659 -69.26550300000001 -18.915241
124.460554 -72.678223 -7.282858
126.644833 -71.089287 -10.70162
122.198837 -74.215538 -9.659957
122.563112 -73.877243 -14.741876999999999
124.126331 -72.494354 -12.685213000000001
126.162216 -71.346512 -15.585107999999998
121.02365499999999 -77.894638 -17.059122
121.939873 -76.14813199999999 -18.776621
121.869308 -75.12044499999999 -16.789272
121.898516 -80.51223 -17.958176
121.952822 -78.53862 -19.294853
123.661148 -77.334236 -22.272568
122.57804300000001 -76.901352 -20.615660000000002
123.263144 -78.834648 -21.306198000000002
123.241491 -74.839119 -20.440023
123.65205399999999 -75.656052 -21.908766
124.42865 -82.560272 -19.372616
123.463203 -80.60818499999999 -20.321057999999997
128.17132900000001 -83.75569899999999 -21.071142000000002
126.244305 -82.046188 -21.701207999999998
126.701548 -79.834518 -23.980667
125.113653 -80.375702 -22.338425
127.911564 -81.238174 -23.613026
124.74913 -78.825005 -23.011765
132.595047 -83.87786899999999 -22.801645
129.86672199999998 -82.630646 -23.222242
137.013062 -82.95084399999999 -24.304707
133.786743 -82.273804 -24.655865
132.062824 -80.00500500000001 -26.082752
131.194897 -81.35685699999999 -24.891911
134.463608 -80.641747 -26.009224
129.310877 -80.25550799999999 -25.076313
140.739056 -81.075562 -25.337557
137.399223 -81.03076899999999 -25.780732999999998
143.244469 -78.56914499999999 -25.764662
140.161957 -79.08811999999999 -26.428010999999998
136.604496 -77.745819 -27.347431
137.259453 -79.270073 -26.780316999999997
139.081318 -77.394745 -27.091103000000004
134.664986 -79.109612 -26.893026000000003
144.090107 -75.794975 -25.494835000000002
141.64839899999998 -76.74578100000001 -26.497776
143.215263 -73.177406 -24.595795000000003
141.635448 -74.355331 -25.979557
137.666142 -74.380402 -27.033888
139.754871 -75.337807 -26.897441999999998
139.05966899999999 -73.399261 -26.224934
137.675232 -76.058571 -27.397686
140.68519600000002 -71.129364 -23.18133
140.125107 -72.285774 -24.953341
136.942566 -69.933929 -21.482775
137.344063 -70.847755 -23.57316
134.625801 -71.880135 -25.325745
137.219322 -71.86348000000001 -25.174646
134.411331 -70.995728 -23.918058
136.578186 -72.889648 -26.294672
132.518818 -69.811775 -19.752270000000003
133.721657 -70.263306 -22.052113000000002
128.100748 -70.738792 -18.249218
129.801594 -70.62015500000001 -20.618505
129.264502 -71.709663 -23.223673
131.138094 -70.88233199999999 -22.621147
127.859228 -71.592163 -21.521889
132.016479 -71.45914499999999 -24.230093
124.374729 -72.614059 -17.21637
126.189075 -71.863174 -19.493648999999998
123.426331 -73.805801 -18.846375
124.722794 -73.968796 -21.959019
125.073479 -72.969078 -20.732769
126.662313 -72.605034 -22.413418
124.453489 -76.20184300000001 -23.1565
125.68734599999999 -75.515129 -24.105778
125.051006 -74.812828 -23.146143
125.065304 -77.449814 -23.717789
125.691761 -76.329712 -24.282362
127.52621500000001 -75.04518900000001 -25.206820999999998
127.532478 -76.199577 -25.457071
126.180576 -78.568329 -24.329912
126.497421 -77.43363199999999 -24.829739
128.13319 -79.03609499999999 -25.240253
127.445112 -77.923645 -25.300035
128.8755 -76.894005 -26.12356
130.322674 -79.23661 -26.069164
129.377333 -78.23539 -26.111368
132.457409 -78.642464 -26.821701
130.713104 -78.113792 -26.599888
130.768518 -76.72168 -26.81587
134.453396 -77.81525400000001 -27.355408
132.640015 -77.45075200000001 -27.199897999999997
135.505016 -76.499504 -27.535721000000002
133.58144 -76.78878 -27.420462
132.102669 -75.783562 -27.128448
136.153103 -75.136871 -27.435184000000003
134.374329 -75.53936 -27.457678
135.49072999999999 -73.862549 -26.964069
134.369915 -74.72479200000001 -27.281094
132.09641299999998 -74.629181 -26.878193
134.42605600000002 -72.770432 -26.261741999999998
133.564274 -73.62088 -26.7337
132.42289 -72.276276 -25.441565
132.61659600000002 -73.130875 -26.263388
130.753401 -73.934761 -26.211689
130.28395999999998 -72.102142 -24.522485999999997
130.684376 -72.81913 -25.452053
128.09862900000002 -72.669907 -23.860149
129.348591 -72.940727 -24.963549
128.860371 -74.107079 -25.519394000000002
126.153198 -73.52346800000001 -23.236275
127.421659 -73.603752 -24.363554
126.480232 -74.265709 -24.142994
50.853348 -90.15520500000001 29.458225
48.7342 -91.339127 29.411064
46.359516000000006 -90.863602 29.372159999999997
47.961449 -89.636604 29.550746999999998
47.711895 -92.957993 28.741415000000003
46.282425 -91.889587 29.122152000000003
50.694538 -92.268959 28.943167
43.279266 -90.599991 28.856688000000002
43.170021 -92.054001 28.502384000000003
49.060303000000005 -94.170609 27.905234999999998
46.139973 -94.357849 27.763428
45.072258 -93.297775 28.353556
43.331726 -95.023911 26.610336
43.7192 -93.935951 27.695251000000003
46.272743000000006 -95.48536700000001 26.549009
41.252514 -92.958389 27.569461999999998
42.628098 -96.07345600000001 25.018621
40.354389000000005 -95.291412 25.334061
41.020320999999996 -94.371445 26.561991
37.386784 -94.623993 24.40588
39.18389499999999 -94.247917 25.881023000000003
38.84470699999999 -95.818947 23.615702
38.649998 -92.78331800000001 26.604412
35.32463800000001 -94.748886 22.489313
34.766563000000005 -93.592766 23.546
36.577270999999996 -93.45552099999999 25.046920999999998
33.359543 -91.99247700000001 23.419307999999997
35.333229 -92.642624 24.742161
32.76168100000001 -93.07418100000001 21.861458
36.886993000000004 -91.63131700000001 26.172520000000002
31.428207 -90.972824 21.798872
32.64978000000001 -90.257019 23.446644
34.345794999999995 -91.086548 24.695808
33.60908499999999 -88.670959 24.228592000000003
34.422882 -90.060516 24.945801
31.587013 -88.859009 22.313906
36.996235 -90.177254 26.526802000000004
33.22120699999999 -86.957352 23.35183
35.243942000000004 -87.238297 25.094275
35.633010999999996 -88.652328 25.714397
37.989166000000004 -86.605179 26.359707
36.986038 -88.014198 26.372715000000003
36.008713 -85.642685 24.708069000000002
38.913712 -89.27291899999999 27.459743
39.653339 -85.054688 26.238490999999996
41.029488 -86.304916 27.523709999999998
39.684898 -87.578796 27.506012
43.934151 -87.005196 28.564217
41.521336 -87.702362 28.186996
43.436756 -85.30925 27.641451
41.516234999999995 -89.448036 28.424814
46.956863 -86.379311 28.767849
46.617378 -88.003555 29.311777000000003
44.127998 -88.494759 29.021101
45.372055 -89.30761700000001 29.325844
49.519852 -88.053947 29.395678999999998
61.721610999999996 -88.081161 26.532095
59.087563 -90.42100500000001 27.343778999999998
56.134239 -89.245583 28.514059000000003
58.171825 -86.99007399999999 27.727669
57.668133000000005 -93.694862 26.093981
55.908867 -92.245514 27.783089
61.435226 -91.893303 25.603245
53.574215 -91.031708 28.890133000000002
52.44495 -93.48848000000001 27.941914
52.823044 -88.455872 29.168190000000003
58.568515999999995 -95.229141 23.78257
54.038132 -96.29675300000001 24.136817999999998
53.648445 -94.875847 26.347458000000003
48.826209999999996 -97.865036 21.792154
49.692276 -96.74173 24.422672
53.541294 -97.600143 21.3367
49.765511 -95.463669 26.471163
45.808155000000006 -96.61868299999999 24.712927
47.147949 -98.63166 18.652142
42.776867 -98.113708 19.408224
44.651077 -97.55513 22.305876
36.825545999999996 -97.057709 17.342188
39.281578 -97.19390899999999 20.314817
40.324776 -98.17263 16.122032
41.27137 -96.834213 22.904476000000003
36.8004 -96.012718 21.372760999999997
34.149963 -96.29559300000001 14.146166000000001
31.90052 -94.807472 15.927926999999999
34.412689 -95.713837 18.756832
28.696014000000005 -91.745789 15.350739
30.775268999999994 -93.33709 17.865783999999998
29.527785999999992 -93.275429 13.013897
33.067566 -94.340363 20.279346
30.698341 -92.025513 19.877941
27.188606000000007 -89.589401 12.904158
27.780272999999994 -88.31485 15.734622
28.930817000000005 -90.430595 17.779239999999998
29.19968399999999 -85.04100799999999 16.984409
29.156181000000004 -87.43064100000001 18.510199
27.474975999999998 -85.77729000000001 13.833010999999999
29.959769999999992 -89.443039 20.133511
31.07641600000001 -86.99282099999999 21.104174
30.341643999999988 -82.44148299999999 15.653654999999999
32.829635999999994 -82.439133 18.941526
31.416565000000006 -84.80032299999999 19.945805
38.041527 -80.87088 21.286169
35.372688 -82.93447900000001 21.870567
35.36882 -80.07047299999999 18.099474
33.768394 -85.011093 22.552448000000002
37.713119999999996 -83.862732 24.333157999999997
41.762156999999995 -79.038956 20.784039
44.090881 -80.622238 23.670147
40.413872 -82.12114 23.987387
50.042235999999995 -81.678253 25.73624
45.783398 -82.482407 25.978504
48.585358 -79.49799300000001 23.314201
42.262508 -83.640701 26.119196
46.720921 -84.468796 27.673414
54.760208 -81.375015 25.2901
54.9673 -83.928436 27.150501000000002
50.652325 -83.962463 27.536516
54.289772 -86.33914200000001 28.427542
59.382416 -84.395134 26.422359000000004
50.466384999999995 -86.134529 28.744358000000002
71.650822 -85.289642 19.483532
69.723366 -88.416428 21.205688000000002
67.06765 -86.72886700000001 23.52107
68.437851 -83.64881899999999 21.73406
67.784771 -92.962067 19.482870000000002
66.73692299999999 -91.210075 22.431510999999997
71.336798 -90.260727 18.295256
64.656803 -89.530052 24.779204999999997
62.927242 -93.519196 23.256372
63.541 -85.34949499999999 25.246948
67.702137 -94.601303 15.963054000000001
62.79084 -96.570663 16.784142000000003
63.377426 -95.130432 20.295513
55.606998 -98.740845 13.550547
57.481148 -97.91581 17.42588
61.279133 -97.675697 12.828461
58.504154 -96.689537 20.871634
52.153542 -98.600418 18.014719
53.082726 -98.998085 9.386766999999999
47.259007 -99.076546 10.262298
49.979794 -99.126076 14.276056
39.038109 -97.600037 7.412105
41.971916 -98.58399200000001 11.307323
44.313248 -98.374825 6.142005
44.782546999999994 -98.903389 15.109929999999999
37.53099399999999 -97.616661 12.592486
36.356441000000004 -95.904457 3.6069400000000003
32.226242 -94.466278 5.4606
34.722922999999994 -96.375252 8.988811
27.783989000000005 -90.208069 4.6634660000000006
29.294403000000003 -92.823318 7.660058
30.377548000000004 -91.948761 2.152829
31.52996800000001 -94.874825 10.869239
27.625359000000003 -91.144272 10.165954
27.321289000000007 -87.13278199999999 2.009425
26.498451000000003 -85.440536 5.191854
26.54409799999999 -88.489449 7.531024
28.436973999999992 -80.894951 6.914681
26.874779000000004 -84.008301 8.620593
27.635254000000003 -82.161766 3.197717
26.50954399999999 -86.96376 10.633707000000001
28.239067000000006 -82.974663 12.156538000000001
31.269835999999998 -77.821213 5.529932
33.43084 -77.286346 9.613404
30.234215000000006 -80.087967 10.756578
40.614647 -75.116112 12.846983999999999
36.130447 -77.302559 13.626183
37.692795 -74.746788 8.664529
32.662109 -79.804321 14.541235
39.012688 -77.893417 17.398119
45.889171999999995 -73.424324 12.106200999999999
48.96262 -74.780342 16.135216
43.631775 -76.09225500000001 16.775997
57.183552 -76.256798 18.985401
51.63966 -76.634293 19.744741
54.658653 -74.047493 15.350928
46.38368199999999 -77.590416 20.302931
53.635265000000004 -78.87712900000001 22.820412
62.615532 -76.517838 17.885981
63.995521999999994 -79.390564 20.936913
58.888714 -78.843002 22.063267
64.31732199999999 -82.39494300000001 23.392025
68.594536 -80.47357199999999 19.340107
59.636348999999996 -81.618942 24.543667000000003
77.523405 -82.3629 8.690823
76.744884 -85.798645 11.20907
75.060316 -83.84871700000001 14.456578
75.179979 -80.465866 11.75113
74.905834 -90.847412 9.416592
74.855328 -89.098007 13.250584
77.439278 -87.634651 7.526557
73.787569 -87.172256 16.634570999999998
71.81992 -92.082588 14.822277
72.343712 -82.00705 17.18729
74.018242 -92.198471 5.228724
69.808769 -94.816475 6.600757000000001
71.23775900000001 -93.66152199999999 10.87711
62.342514 -97.156258 3.221947
64.73741100000001 -96.870926 7.683737
67.761318 -95.385994 2.13383
66.606384 -95.965027 11.980167
59.052654 -98.280884 8.572794
59.657242 -96.693497 -1.269099
53.569363 -97.436516 -0.218229
56.381462 -98.21905500000001 4.175045
44.849541 -95.696663 -3.204134
47.393604 -97.508492 0.864874
50.892815 -95.929512 -4.481714
50.235786 -98.606216 5.106103
41.52084 -96.971008 2.099615
42.852901 -93.214813 -6.996345
37.539391 -92.124062 -5.253394999999999
39.194042 -94.851585 -1.723675
32.67385899999999 -87.323883 -6.097236
32.983565999999996 -90.637436 -3.211512
36.714909 -88.946968 -8.444725
34.265427 -93.54878199999999 0.039152
29.494331000000003 -88.92049399999999 -0.805218
33.448792 -83.800354 -8.597996
