255.0327 -83.928436 27.150501000000002
255.239792 -81.375015 25.2901
245.343197 -89.530052 24.779204999999997
242.93234999999999 -86.72886700000001 23.52107
246.459 -85.34949499999999 25.246948
247.072762 -93.519196 23.256372
243.263077 -91.210075 22.431510999999997
238.663202 -90.260727 18.295256
240.276634 -88.416428 21.205688000000002
242.215229 -92.962067 19.482870000000002
241.562149 -83.64881899999999 21.73406
238.349178 -85.289642 19.483532
251.495846 -96.689537 20.871634
246.622574 -95.130432 20.295513
257.846458 -98.600418 18.014719
252.518852 -97.91581 17.42588
248.720867 -97.675697 12.828461
247.20916 -96.570663 16.784142000000003
254.393002 -98.740845 13.550547
242.297863 -94.601303 15.963054000000001
265.217453 -98.903389 15.109929999999999
260.02020600000003 -99.126076 14.276056
272.46900600000004 -97.616661 12.592486
268.02808400000004 -98.58399200000001 11.307323
265.686752 -98.374825 6.142005
262.740993 -99.076546 10.262298
270.96189100000004 -97.600037 7.412105
256.917274 -98.998085 9.386766999999999
278.470032 -94.874825 10.869239
275.277077 -96.375252 8.988811
282.374641 -91.144272 10.165954
280.705597 -92.823318 7.660058
279.622452 -91.948761 2.152829
277.773758 -94.466278 5.4606
282.216011 -90.208069 4.6634660000000006
273.643559 -95.904457 3.6069400000000003
283.490456 -86.96376 10.633707000000001
283.45590200000004 -88.489449 7.531024
281.760933 -82.974663 12.156538000000001
283.125221 -84.008301 8.620593
282.36474599999997 -82.161766 3.197717
283.501549 -85.440536 5.191854
281.56302600000004 -80.894951 6.914681
282.678711 -87.13278199999999 2.009425
277.337891 -79.804321 14.541235
279.765785 -80.087967 10.756578
270.987312 -77.893417 17.398119
273.869553 -77.302559 13.626183
272.307205 -74.746788 8.664529
276.56916 -77.286346 9.613404
269.385353 -75.116112 12.846983999999999
278.730164 -77.821213 5.529932
263.616318 -77.590416 20.302931
266.368225 -76.09225500000001 16.775997
256.364735 -78.87712900000001 22.820412
258.36034 -76.634293 19.744741
255.34134699999998 -74.047493 15.350928
261.03738 -74.780342 16.135216
252.816448 -76.256798 18.985401
264.11082799999997 -73.424324 12.106200999999999
250.363651 -81.618942 24.543667000000003
251.111286 -78.843002 22.063267
245.682678 -82.39494300000001 23.392025
241.405464 -80.47357199999999 19.340107
246.004478 -79.390564 20.936913
247.384468 -76.517838 17.885981
236.21243099999998 -87.172256 16.634570999999998
234.939684 -83.84871700000001 14.456578
237.65628800000002 -82.00705 17.18729
238.18008 -92.082588 14.822277
235.144672 -89.098007 13.250584
232.560722 -87.634651 7.526557
233.255116 -85.798645 11.20907
235.094166 -90.847412 9.416592
234.820021 -80.465866 11.75113
232.476595 -82.3629 8.690823
243.393616 -95.965027 11.980167
238.762241 -93.66152199999999 10.87711
250.947346 -98.280884 8.572794
245.262589 -96.870926 7.683737
242.23868199999998 -95.385994 2.13383
240.19123100000002 -94.816475 6.600757000000001
247.657486 -97.156258 3.221947
235.981758 -92.198471 5.228724
259.76421400000004 -98.606216 5.106103
253.618538 -98.21905500000001 4.175044000000001
268.47916 -96.971008 2.099615
262.606396 -97.508492 0.864874
259.107185 -95.929512 -4.481714
256.430637 -97.436516 -0.218229
265.150459 -95.696663 -3.204134
250.342758 -96.693497 -1.269099
275.734573 -93.54878199999999 0.039152
270.80595800000003 -94.851585 -1.723675
280.505669 -88.92049399999999 -0.805218
277.016434 -90.637436 -3.211512
273.28509099999997 -88.946968 -8.444725
272.460609 -92.124062 -5.253394999999999
277.326141 -87.323883 -6.097236
267.147099 -93.214813 -6.996345
281.94955400000003 -83.755371 -0.25247800000000004
280.256454 -85.531921 -3.363549
279.981972 -78.845085 1.559836
280.051514 -80.282684 -2.157532
276.46711700000003 -78.52864100000001 -7.433717
278.891068 -81.991173 -5.555154
277.052063 -76.942444 -3.762654
276.551208 -83.800354 -8.597996
274.768486 -74.96264599999999 4.401965000000001
276.43399 -75.7192 0.215964
267.21479 -72.64672900000001 7.809334
269.93367 -72.509773 3.4093489999999997
266.789192 -70.777328 -2.0409610000000002
271.955021 -72.973389 -0.9468
264.48877 -70.63356 2.432007
273.046112 -73.964851 -5.135867
258.39793399999996 -72.321297 11.275984
261.577736 -71.16156 6.918017999999999
249.682961 -73.956436 14.282434
252.589867 -71.872017 10.228141
249.92063100000001 -70.233643 4.574528
255.715603 -70.35320300000001 5.8721440000000005
246.995754 -72.092972 8.858011
258.685097 -69.469749 1.361951
242.42745200000002 -77.378677 16.342897
244.390255 -74.5289 12.816668
238.179712 -78.743111 14.304517
235.742691 -77.21620899999999 8.537535
239.685562 -75.665604 10.907269
241.880688 -72.948318 7.089141000000001
231.114038 -84.205696 5.204256
230.69623 -80.796265 2.490915
232.691904 -78.989632 5.716276000000001
232.790401 -89.13069899999999 3.501009
230.728903 -85.802986 1.403353
229.77898 -83.793068 -4.7051050000000005
229.74542 -82.448624 -1.024823
231.266693 -87.000328 -2.588193
231.215908 -77.624588 -0.555589
229.75456 -79.285057 -3.727778
237.59419300000002 -92.98786899999999 0.822176
233.895702 -90.129913 -0.745687
244.685478 -95.243881 -2.3941790000000003
239.732845 -93.14337900000001 -3.641483
237.866222 -90.40005500000001 -9.239312
235.666256 -90.561661 -5.04778
242.174305 -92.640381 -8.001358999999999
232.621635 -87.68821700000001 -6.63657
253.056835 -95.48262 -5.67063
247.317928 -94.367172 -6.826473
261.409039 -93.748039 -8.516024
255.54014999999998 -93.622063 -9.834228
252.076454 -90.827118 -14.805641
249.866646 -92.852791 -11.010533
257.549103 -91.240799 -13.624198999999999
244.683975 -91.500061 -12.102081
268.444252 -90.228577 -10.470767
263.10031100000003 -91.02583299999999 -12.189453
273.16487900000004 -85.519592 -11.278372000000001
268.891266 -86.958694 -13.547234
264.08558700000003 -84.824089 -18.143407999999997
264.02822100000003 -87.979874 -15.420212
268.384907 -83.62149000000001 -16.162893
258.87555299999997 -88.487595 -16.922764
274.74279 -80.303574 -10.766353
271.997929 -82.063324 -13.693029999999998
273.066467 -75.378601 -9.063106
271.965317 -77.056625 -12.605494
266.858948 -75.907524 -17.297445
269.855461 -78.797478 -15.693695000000002
268.334255 -74.245804 -14.130362
266.883293 -80.415527 -18.274714000000003
268.262695 -71.521454 -6.3842550000000005
268.79855299999997 -72.729736 -10.456453
261.17139099999997 -69.265427 -3.1678919999999997
262.961411 -69.716301 -7.560633
258.77178200000003 -69.300613 -12.763213
263.93472299999996 -70.684517 -11.670753
257.426651 -68.605812 -8.717145
264.016354 -72.012421 -15.365993
252.799984 -69.026604 0.10853299999999999
255.376282 -68.49247700000001 -4.375642
244.447735 -70.761108 2.9539009999999997
247.153992 -69.237495 -1.367913
244.561405 -68.873474 -7.19688
249.73423 -68.393341 -5.7079830000000005
242.051701 -70.00527199999999 -3.094329
251.953976 -68.2006 -9.900426
237.41251 -74.280594 4.908653
239.593792 -71.833694 0.9873120000000001
233.802845 -75.900856 2.3451169999999997
232.552216 -74.87648 -3.8590660000000003
235.572561 -73.26619000000001 -1.298289
237.762245 -71.212975 -5.079743
229.352356 -80.72776800000001 -7.0431490000000005
229.81144899999998 -77.9776 -9.547930000000001
230.641418 -76.498901 -6.631792999999999
230.685947 -84.717896 -8.413651
229.832287 -81.824524 -10.381941000000001
230.647343 -80.036812 -15.326327
229.881618 -79.183167 -12.486034
230.989779 -82.498802 -13.624861
230.952782 -75.669159 -12.144213
230.63047799999998 -76.922668 -14.651191
234.542728 -87.839851 -10.569786
232.258085 -85.14846 -12.030161999999999
240.24786799999998 -89.66211700000001 -13.158959
236.733589 -87.462616 -14.251213
236.234074 -84.60092900000001 -18.458542
234.19462 -85.093018 -15.416510999999998
238.935369 -86.607239 -17.567997000000002
232.61107099999998 -82.72758499999999 -16.660576000000002
246.991188 -89.848343 -15.796870000000002
242.551559 -88.401321 -16.694159
253.725822 -88.435234 -18.088070000000002
248.859966 -87.82708000000001 -19.001247
246.05056 -84.895958 -22.303757
244.538795 -86.761993 -19.759987
250.135002 -85.587761 -21.663879
240.943813 -85.360817 -20.436135999999998
259.405567 -85.57663000000001 -19.662495
254.661999 -85.830627 -20.807901
263.22472400000004 -81.755951 -20.313547
259.107986 -82.70436099999999 -21.849543
254.346478 -80.74904599999999 -24.609501
254.85463 -83.212372 -22.972164000000003
258.028179 -80.037552 -23.513166000000002
250.747387 -83.2798 -23.766272
264.51384 -77.52709200000001 -19.902245
261.495399 -78.942299 -21.961594
263.180321 -73.536987 -18.531792000000003
261.474609 -75.09539000000001 -21.12764
256.262245 -74.589493 -24.025105
259.099358 -76.52356 -23.171387
257.991234 -73.20794699999999 -22.032595
256.279106 -77.703613 -24.700207000000002
259.323586 -70.415062 -16.375632999999997
259.04886999999997 -71.771484 -19.479429
253.618446 -68.59281899999999 -13.786419
254.57341 -69.457336 -17.258339000000003
250.675632 -70.025391 -20.892857
254.786461 -70.613739 -20.240921
250.045746 -69.099518 -18.089397
254.298569 -71.89874300000001 -22.690855
246.875053 -68.406563 -11.148508
248.755417 -68.51864599999999 -14.815369
240.14032600000002 -69.819626 -8.857313000000001
242.446926 -69.092865 -12.508286
240.859097 -69.73037 -17.047623
244.442272 -68.944771 -15.897401
238.845989 -70.118988 -13.993511999999999
245.9659 -69.26550300000001 -18.915241
234.460554 -72.678223 -7.282858
236.644833 -71.089287 -10.70162
232.198837 -74.215538 -9.659957
232.563112 -73.877243 -14.741876999999999
234.126331 -72.494354 -12.685213000000001
236.162216 -71.346512 -15.585107999999998
231.023655 -77.894638 -17.059122
231.939873 -76.14813199999999 -18.776621
231.869308 -75.12044499999999 -16.789272
231.898516 -80.51223 -17.958176
231.952822 -78.53862 -19.294853
233.661148 -77.334236 -22.272568
232.578043 -76.901352 -20.615660000000002
233.263144 -78.834648 -21.306198000000002
233.241491 -74.839119 -20.440023
233.652054 -75.656052 -21.908766
234.42865 -82.560272 -19.372616
233.463203 -80.60818499999999 -20.321057999999997
238.17132900000001 -83.75569899999999 -21.071142000000002
236.244305 -82.046188 -21.701207999999998
236.701548 -79.834518 -23.980667
235.113653 -80.375702 -22.338425
237.911564 -81.238174 -23.613026
234.74912999999998 -78.825005 -23.011765
242.595047 -83.87786899999999 -22.801645
239.86672199999998 -82.630646 -23.222242
247.013062 -82.95084399999999 -24.304707
243.786743 -82.273804 -24.655865
242.062824 -80.00500500000001 -26.082752
241.194897 -81.35685699999999 -24.891911
244.463608 -80.641747 -26.009224
239.310877 -80.25550799999999 -25.076313
250.739056 -81.075562 -25.337557
247.399223 -81.03076899999999 -25.780732999999998
253.244469 -78.56914499999999 -25.764662
250.161957 -79.08811999999999 -26.428010999999998
246.604496 -77.745819 -27.347431
247.259453 -79.270073 -26.780316999999997
249.081318 -77.394745 -27.091103000000004
244.664986 -79.109612 -26.893026000000003
254.090107 -75.794975 -25.494835000000002
251.64839899999998 -76.74578100000001 -26.497776
253.215263 -73.177406 -24.595795000000003
251.635448 -74.355331 -25.979557
247.666142 -74.380402 -27.033888
249.754871 -75.337807 -26.897441999999998
249.05966899999999 -73.399261 -26.224934
247.675232 -76.058571 -27.397686
250.68519600000002 -71.129364 -23.18133
250.125107 -72.285774 -24.953341
246.942566 -69.933929 -21.482775
247.344063 -70.847755 -23.57316
244.625801 -71.880135 -25.325745
247.219322 -71.86348000000001 -25.174646
244.411331 -70.995728 -23.918058
246.578186 -72.889648 -26.294672
242.518818 -69.811775 -19.752270000000003
243.721657 -70.263306 -22.052113000000002
238.100748 -70.738792 -18.249218
239.801594 -70.62015500000001 -20.618505
239.264502 -71.709663 -23.223673
241.138094 -70.88233199999999 -22.621147
237.859228 -71.592163 -21.521889
242.016479 -71.45914499999999 -24.230093
234.374729 -72.614059 -17.21637
236.189075 -71.863174 -19.493648999999998
233.426331 -73.805801 -18.846375
234.722794 -73.968796 -21.959019
235.07347900000002 -72.969078 -20.732769
236.66231299999998 -72.605034 -22.413418
234.453489 -76.20184300000001 -23.1565
235.687346 -75.515129 -24.105778
235.051006 -74.812828 -23.146143
235.065304 -77.449814 -23.717789
235.69176099999999 -76.329712 -24.282362
237.526215 -75.04518900000001 -25.206820999999998
237.532478 -76.199577 -25.457071
236.180576 -78.568329 -24.329912
236.497421 -77.43363199999999 -24.829739
238.13319 -79.03609499999999 -25.240253
237.445112 -77.923645 -25.300035
238.8755 -76.894005 -26.12356
240.322674 -79.23661 -26.069164
239.377333 -78.23539 -26.111368
242.457409 -78.642464 -26.821701
240.713104 -78.113792 -26.599888
240.768518 -76.72168 -26.81587
244.453396 -77.81525400000001 -27.355408
242.640015 -77.45075200000001 -27.199897999999997
245.505016 -76.499504 -27.535721000000002
243.58144 -76.78878 -27.420462
242.102669 -75.783562 -27.128448
246.153103 -75.136871 -27.435184000000003
244.374329 -75.53936 -27.457678
245.49072999999999 -73.862549 -26.964069
244.369915 -74.72479200000001 -27.281094
242.09641299999998 -74.629181 -26.878193
244.42605600000002 -72.770432 -26.261741999999998
243.564274 -73.62088 -26.7337
242.42289 -72.276276 -25.441565
242.61659600000002 -73.130875 -26.263388
240.753401 -73.934761 -26.211689
240.28395999999998 -72.102142 -24.522485999999997
240.684376 -72.81913 -25.452053
238.09862900000002 -72.669907 -23.860149
239.348591 -72.940727 -24.963549
238.860371 -74.107079 -25.519394000000002
236.153198 -73.52346800000001 -23.236275
237.421659 -73.603752 -24.363554
236.480232 -74.265709 -24.142994
160.85334799999998 -90.15520500000001 29.458225
158.7342 -91.339127 29.411064
156.359516 -90.863602 29.372159999999997
157.96144900000002 -89.636604 29.550746999999998
157.711895 -92.957993 28.741415000000003
156.282425 -91.889587 29.122152000000003
160.694538 -92.268959 28.943167
153.279266 -90.599991 28.856688000000002
153.170021 -92.054001 28.502384000000003
159.060303 -94.170609 27.905234999999998
156.139973 -94.357849 27.763428
155.072258 -93.297775 28.353556
153.331726 -95.023911 26.610336
153.7192 -93.935951 27.695251000000003
156.272743 -95.48536700000001 26.549009
151.252514 -92.958389 27.569461999999998
152.628098 -96.07345600000001 25.018621
150.354389 -95.291412 25.334061
151.020321 -94.371445 26.561991
147.386784 -94.623993 24.40588
149.183895 -94.247917 25.881023000000003
148.844707 -95.818947 23.615702
148.64999799999998 -92.78331800000001 26.604412
145.324638 -94.748886 22.489313
144.76656300000002 -93.592766 23.546
146.577271 -93.45552099999999 25.046920999999998
143.359543 -91.99247700000001 23.419307999999997
145.33322900000002 -92.642624 24.742161
142.761681 -93.07418100000001 21.861458
146.88699300000002 -91.63131700000001 26.172520000000002
141.428207 -90.972824 21.798872
142.64978000000002 -90.257019 23.446644
144.345795 -91.086548 24.695808
143.609085 -88.670959 24.228592000000003
144.42288200000002 -90.060516 24.945801
141.587013 -88.859009 22.313906
146.996235 -90.177254 26.526802000000004
143.221207 -86.957352 23.35183
145.243942 -87.238297 25.094275
145.633011 -88.652328 25.714397
147.989166 -86.605179 26.359707
146.986038 -88.014198 26.372715000000003
146.008713 -85.642685 24.708069000000002
148.913712 -89.27291899999999 27.459743
149.65333900000002 -85.054688 26.238490999999996
151.02948800000001 -86.304916 27.523709999999998
149.684898 -87.578796 27.506012
153.93415099999999 -87.005196 28.564217
151.521336 -87.702362 28.186996
153.436756 -85.30925 27.641451
151.516235 -89.448036 28.424814
156.956863 -86.379311 28.767849
156.617378 -88.003555 29.311777000000003
154.127998 -88.494759 29.021101
155.372055 -89.30761700000001 29.325844
159.51985200000001 -88.053947 29.395678999999998
171.721611 -88.081161 26.532095
169.087563 -90.42100500000001 27.343778999999998
166.134239 -89.245583 28.514059000000003
168.171825 -86.99007399999999 27.727669
167.668133 -93.694862 26.093981
165.908867 -92.245514 27.783089
171.435226 -91.893303 25.603245
163.574215 -91.031708 28.890133000000002
162.44495 -93.48848000000001 27.941914
162.823044 -88.455872 29.168190000000003
168.568516 -95.229141 23.78257
164.038132 -96.29675300000001 24.136817999999998
163.648445 -94.875847 26.347458000000003
158.82621 -97.865036 21.792154
159.692276 -96.74173 24.422672
163.541294 -97.600143 21.3367
159.765511 -95.463669 26.471163
155.808155 -96.61868299999999 24.712927
157.14794899999998 -98.63166 18.652142
152.776867 -98.113708 19.408224
154.651077 -97.55513 22.305876
146.825546 -97.057709 17.342188
149.281578 -97.19390899999999 20.314817
150.32477599999999 -98.17263 16.122032
151.27137 -96.834213 22.904476000000003
146.8004 -96.012718 21.372760999999997
144.149963 -96.29559300000001 14.146166000000001
141.90052 -94.807472 15.927926999999999
144.412689 -95.713837 18.756832
138.696014 -91.745789 15.350739
140.77526899999998 -93.33709 17.865783999999998
139.527786 -93.275429 13.013897
143.067566 -94.340363 20.279346
140.698341 -92.025513 19.877941
137.188606 -89.589401 12.904158
137.780273 -88.31485 15.734622
138.930817 -90.430595 17.779239999999998
139.199684 -85.04100799999999 16.984409
139.156181 -87.43064100000001 18.510199
137.474976 -85.77729000000001 13.833010999999999
139.95977 -89.443039 20.133511
141.076416 -86.99282099999999 21.104174
140.34164399999997 -82.44148299999999 15.653654999999999
142.829636 -82.439133 18.941526
141.416565 -84.80032299999999 19.945805
148.041527 -80.87088 21.286169
145.37268799999998 -82.93447900000001 21.870567
145.36882 -80.07047299999999 18.099474
143.768394 -85.011093 22.552448000000002
147.71312 -83.862732 24.333157999999997
151.762157 -79.038956 20.784039
154.090881 -80.622238 23.670147
150.413872 -82.12114 23.987387
160.042236 -81.678253 25.73624
155.783398 -82.482407 25.978504
158.58535799999999 -79.49799300000001 23.314201
152.262508 -83.640701 26.119196
156.720921 -84.468796 27.673414
164.760208 -81.375015 25.2901
164.9673 -83.928436 27.150501000000002
160.652325 -83.962463 27.536516
164.289772 -86.33914200000001 28.427542
169.382416 -84.395134 26.422359000000004
160.466385 -86.134529 28.744358000000002
181.650822 -85.289642 19.483532
179.723366 -88.416428 21.205688000000002
177.06765000000001 -86.72886700000001 23.52107
178.437851 -83.64881899999999 21.73406
177.784771 -92.962067 19.482870000000002
176.736923 -91.210075 22.431510999999997
181.336798 -90.260727 18.295256
174.656803 -89.530052 24.779204999999997
172.927242 -93.519196 23.256372
173.541 -85.34949499999999 25.246948
177.702137 -94.601303 15.963054000000001
172.79084 -96.570663 16.784142000000003
173.377426 -95.130432 20.295513
165.606998 -98.740845 13.550547
167.481148 -97.91581 17.42588
171.279133 -97.675697 12.828461
168.504154 -96.689537 20.871634
162.15354200000002 -98.600418 18.014719
163.082726 -98.998085 9.386766999999999
157.259007 -99.076546 10.262298
159.979794 -99.126076 14.276056
149.038109 -97.600037 7.412105
151.971916 -98.58399200000001 11.307323
154.313248 -98.374825 6.142005
154.782547 -98.903389 15.109929999999999
147.530994 -97.616661 12.592486
146.35644100000002 -95.904457 3.6069400000000003
142.226242 -94.466278 5.4606
144.72292299999998 -96.375252 8.988811
137.78398900000002 -90.208069 4.6634660000000006
139.294403 -92.823318 7.660058
140.377548 -91.948761 2.152829
141.529968 -94.874825 10.869239
137.625359 -91.144272 10.165954
137.321289 -87.13278199999999 2.009425
136.498451 -85.440536 5.191854
136.544098 -88.489449 7.531024
138.436974 -80.894951 6.914681
136.874779 -84.008301 8.620593
137.635254 -82.161766 3.197717
136.509544 -86.96376 10.633707000000001
138.239067 -82.974663 12.156538000000001
141.269836 -77.821213 5.529932
143.43084 -77.286346 9.613404
140.234215 -80.087967 10.756578
150.614647 -75.116112 12.846983999999999
146.130447 -77.302559 13.626183
147.692795 -74.746788 8.664529
142.662109 -79.804321 14.541235
149.012688 -77.893417 17.398119
155.889172 -73.424324 12.106200999999999
158.96262000000002 -74.780342 16.135216
153.631775 -76.09225500000001 16.775997
167.183552 -76.256798 18.985401
161.63966 -76.634293 19.744741
164.65865300000002 -74.047493 15.350928
156.383682 -77.590416 20.302931
163.635265 -78.87712900000001 22.820412
172.615532 -76.517838 17.885981
173.995522 -79.390564 20.936913
168.888714 -78.843002 22.063267
174.317322 -82.39494300000001 23.392025
178.594536 -80.47357199999999 19.340107
169.636349 -81.618942 24.543667000000003
187.523405 -82.3629 8.690823
186.744884 -85.798645 11.20907
185.060316 -83.84871700000001 14.456578
185.179979 -80.465866 11.75113
184.905834 -90.847412 9.416592
184.855328 -89.098007 13.250584
187.439278 -87.634651 7.526557
183.78756900000002 -87.172256 16.634570999999998
181.81992 -92.082588 14.822277
182.34371199999998 -82.00705 17.18729
184.018242 -92.198471 5.228724
179.80876899999998 -94.816475 6.600757000000001
181.237759 -93.66152199999999 10.87711
172.342514 -97.156258 3.221947
174.737411 -96.870926 7.683737
177.76131800000002 -95.385994 2.13383
176.606384 -95.965027 11.980167
169.052654 -98.280884 8.572794
169.657242 -96.693497 -1.269099
163.569363 -97.436516 -0.218229
166.381462 -98.21905500000001 4.175045
154.849541 -95.696663 -3.204134
157.393604 -97.508492 0.864874
160.89281499999998 -95.929512 -4.481714
160.235786 -98.606216 5.106103
151.52084 -96.971008 2.099615
152.852901 -93.214813 -6.996345
147.539391 -92.124062 -5.253394999999999
149.194042 -94.851585 -1.723675
142.673859 -87.323883 -6.097236
142.983566 -90.637436 -3.211512
146.714909 -88.946968 -8.444725
144.265427 -93.54878199999999 0.039152
139.494331 -88.92049399999999 -0.805218
143.448792 -83.800354 -8.597996
141.10893199999998 -81.991173 -5.555154
139.74354599999998 -85.531921 -3.363549
142.947937 -76.942444 -3.762654
139.948486 -80.282684 -2.157532
143.532883 -78.52864100000001 -7.433717
138.050446 -83.755371 -0.25247800000000004
140.01802800000002 -78.845085 1.559836
146.953888 -73.964851 -5.135867
148.044979 -72.973389 -0.9468
143.56601 -75.7192 0.215964
155.51123 -70.63356 2.432007
150.06633 -72.509773 3.4093489999999997
153.210808 -70.777328 -2.0409610000000002
145.231514 -74.96264599999999 4.401965000000001
152.78521 -72.64672900000001 7.809334
161.31490300000002 -69.469749 1.361951
164.284397 -70.35320300000001 5.8721440000000005
158.42226399999998 -71.16156 6.918017999999999
173.004246 -72.092972 8.858011
167.410133 -71.872017 10.228141
170.07936899999999 -70.233643 4.574528
161.602066 -72.321297 11.275984
170.317039 -73.956436 14.282434
178.119312 -72.948318 7.089141000000001
180.314438 -75.665604 10.907269
175.609745 -74.5289 12.816668
181.820288 -78.743111 14.304517
184.257309 -77.21620899999999 8.537535
177.57254799999998 -77.378677 16.342897
190.24544 -79.285057 -3.727778
190.25458 -82.448624 -1.024823
189.30377 -80.796265 2.490915
188.784092 -77.624588 -0.555589
188.733307 -87.000328 -2.588193
189.271097 -85.802986 1.403353
190.22102 -83.793068 -4.7051050000000005
188.885962 -84.205696 5.204256
187.209599 -89.13069899999999 3.501009
187.308096 -78.989632 5.716276000000001
187.378365 -87.68821700000001 -6.63657
184.333744 -90.561661 -5.04778
186.104298 -90.129913 -0.745687
177.825695 -92.640381 -8.001358999999999
180.267155 -93.14337900000001 -3.641483
182.133778 -90.40005500000001 -9.239312
182.40580699999998 -92.98786899999999 0.822176
175.314522 -95.243881 -2.3941790000000003
175.316025 -91.500061 -12.102081
170.133354 -92.852791 -11.010533
172.682072 -94.367172 -6.826473
162.450897 -91.240799 -13.624198999999999
164.45985000000002 -93.622063 -9.834228
167.923546 -90.827118 -14.805641
166.943165 -95.48262 -5.67063
158.590961 -93.748039 -8.516024
161.124447 -88.487595 -16.922764
155.971779 -87.979874 -15.420212
156.899689 -91.02583299999999 -12.189453
151.615093 -83.62149000000001 -16.162893
151.108734 -86.958694 -13.547234
155.914413 -84.824089 -18.143407999999997
151.555748 -90.228577 -10.470767
146.835121 -85.519592 -11.278372000000001
153.116707 -80.415527 -18.274714000000003
150.144539 -78.797478 -15.693695000000002
148.002071 -82.063324 -13.693029999999998
151.665745 -74.245804 -14.130362
148.034683 -77.056625 -12.605494
153.141052 -75.907524 -17.297445
145.25721 -80.303574 -10.766353
146.933533 -75.378601 -9.063106
155.983646 -72.012421 -15.365993
156.065281 -70.684517 -11.670753
151.201447 -72.729736 -10.456453
162.573353 -68.605812 -8.717145
157.038589 -69.716301 -7.560633
161.228218 -69.300613 -12.763213
151.737305 -71.521454 -6.3842550000000005
158.828609 -69.265427 -3.1678919999999997
168.046024 -68.2006 -9.900427
170.26577 -68.393341 -5.7079830000000005
164.623718 -68.49247700000001 -4.375643
177.948299 -70.00527199999999 -3.094329
172.846008 -69.237495 -1.367913
175.438595 -68.873474 -7.19688
167.200016 -69.026604 0.10853299999999999
175.552265 -70.761108 2.9539009999999997
182.237755 -71.212975 -5.079743
184.427439 -73.26619000000001 -1.298289
180.406208 -71.833694 0.9873120000000001
186.197155 -75.900856 2.3451169999999997
187.447784 -74.87648 -3.8590660000000003
182.58749 -74.280594 4.908653
189.36952200000002 -76.922668 -14.651191
190.118382 -79.183167 -12.486034
190.18855100000002 -77.9776 -9.547930000000001
189.047218 -75.669159 -12.144213
189.010221 -82.498802 -13.624861
190.167713 -81.824524 -10.381941000000001
189.352657 -80.036812 -15.326327
190.647644 -80.72776800000001 -7.0431490000000005
189.314053 -84.717896 -8.413651
189.358582 -76.498901 -6.631792999999999
187.38892900000002 -82.72758499999999 -16.660576000000002
185.80538 -85.093018 -15.416510999999998
187.741915 -85.14846 -12.030161999999999
181.064631 -86.607239 -17.567997000000002
183.266411 -87.462616 -14.251213
183.765926 -84.60092900000001 -18.458542
185.457272 -87.839851 -10.569786
179.75213200000002 -89.66211700000001 -13.158959
179.056187 -85.360817 -20.436135999999998
175.461205 -86.761993 -19.759987
177.448441 -88.401321 -16.694159
169.864998 -85.587761 -21.663879
171.140034 -87.82708000000001 -19.001247
173.94944 -84.895958 -22.303757
173.008812 -89.848343 -15.796870000000002
166.274178 -88.435234 -18.088070000000002
169.252613 -83.2798 -23.766272
165.14537 -83.212372 -22.972164000000003
165.338001 -85.830627 -20.807901
161.971821 -80.037552 -23.513166000000002
160.89201400000002 -82.70436099999999 -21.849543
165.653522 -80.74904599999999 -24.609501
160.594433 -85.57663000000001 -19.662495
156.775276 -81.755951 -20.313547
163.720894 -77.703613 -24.700207000000002
160.900642 -76.52356 -23.171387
158.504601 -78.942299 -21.961594
162.00876599999998 -73.20794699999999 -22.032595
158.525391 -75.09539000000001 -21.12764
163.737755 -74.589493 -24.025105
155.48615999999998 -77.52709200000001 -19.902245
156.819679 -73.536987 -18.531792000000003
165.701431 -71.89874300000001 -22.690855
165.213539 -70.613739 -20.240921
160.95113 -71.771484 -19.479429
169.954254 -69.099518 -18.089397
165.42659 -69.457336 -17.258339000000003
169.324368 -70.025391 -20.892857
160.676414 -70.415062 -16.375632999999997
166.381554 -68.59281899999999 -13.786419
174.0341 -69.26550300000001 -18.915241
175.557728 -68.944771 -15.897401
171.244583 -68.51864599999999 -14.815369
181.154011 -70.118988 -13.993511999999999
177.553074 -69.092865 -12.508286
179.140903 -69.73037 -17.047623
173.124947 -68.406563 -11.148508
179.85967399999998 -69.819626 -8.857313000000001
183.837784 -71.346512 -15.585107999999998
185.873669 -72.494354 -12.685213000000001
183.355167 -71.089287 -10.70162
187.801163 -74.215538 -9.659957
187.436888 -73.877243 -14.741876999999999
185.539446 -72.678223 -7.282858
186.347946 -75.656052 -21.908766
187.421957 -76.901352 -20.615660000000002
188.060127 -76.14813199999999 -18.776621
186.758509 -74.839119 -20.440023
186.736856 -78.834648 -21.306198000000002
188.047178 -78.53862 -19.294853
186.338852 -77.334236 -22.272568
188.976345 -77.894638 -17.059122
188.101484 -80.51223 -17.958176
188.130692 -75.12044499999999 -16.789272
185.25087000000002 -78.825005 -23.011765
184.886347 -80.375702 -22.338425
186.536797 -80.60818499999999 -20.321057999999997
182.088436 -81.238174 -23.613026
183.755695 -82.046188 -21.701207999999998
183.298452 -79.834518 -23.980667
185.57135 -82.560272 -19.372616
181.82867099999999 -83.75569899999999 -21.071142000000002
180.689123 -80.25550799999999 -25.076313
178.805103 -81.35685699999999 -24.891911
180.13327800000002 -82.630646 -23.222242
175.536392 -80.641747 -26.009224
176.213257 -82.273804 -24.655865
177.937176 -80.00500500000001 -26.082752
177.404953 -83.87786899999999 -22.801645
172.986938 -82.95084399999999 -24.304707
175.335014 -79.109612 -26.893026000000003
172.740547 -79.270073 -26.780316999999997
172.600777 -81.03076899999999 -25.780732999999998
170.918682 -77.394745 -27.091103000000004
169.838043 -79.08811999999999 -26.428010999999998
173.395504 -77.745819 -27.347431
169.260944 -81.075562 -25.337557
166.755531 -78.56914499999999 -25.764662
172.324768 -76.058571 -27.397686
170.245129 -75.337807 -26.897441999999998
168.35160100000002 -76.74578100000001 -26.497776
170.94033100000001 -73.399261 -26.224934
168.364552 -74.355331 -25.979557
172.333858 -74.380402 -27.033888
165.909893 -75.794975 -25.494835000000002
166.784737 -73.177406 -24.595795000000003
173.421814 -72.889648 -26.294672
172.780678 -71.86348000000001 -25.174646
169.874893 -72.285774 -24.953341
175.588669 -70.995728 -23.918058
172.655937 -70.847755 -23.57316
175.374199 -71.880135 -25.325745
169.31480399999998 -71.129364 -23.18133
173.057434 -69.933929 -21.482775
177.983521 -71.45914499999999 -24.230093
178.861906 -70.882324 -22.621147
176.278343 -70.263306 -22.052113000000002
182.140772 -71.592155 -21.521891
180.198406 -70.62015500000001 -20.618505
180.735498 -71.70965600000001 -23.223673
177.481182 -69.811775 -19.752270000000003
181.899252 -70.738792 -18.249218
183.33768700000002 -72.605026 -22.413418
184.92652099999998 -72.969078 -20.732769
183.810925 -71.863174 -19.493648999999998
186.573669 -73.805801 -18.846375
185.277206 -73.968796 -21.959019
185.625271 -72.614059 -17.21637
182.467522 -76.199577 -25.457071
184.30823900000001 -76.329712 -24.282362
184.312654 -75.515129 -24.105778
182.473785 -75.04518900000001 -25.206820999999998
185.546511 -76.20184300000001 -23.1565
184.934696 -77.449814 -23.717789
184.948994 -74.812828 -23.146143
181.1245 -76.894005 -26.12356
182.554888 -77.923645 -25.300035
183.502579 -77.43363199999999 -24.829739
183.819424 -78.568329 -24.329912
181.86681 -79.03609499999999 -25.240253
179.231482 -76.72168 -26.81587
179.286896 -78.113792 -26.599888
180.622667 -78.23539 -26.111368
179.677326 -79.23661 -26.069164
177.542591 -78.642464 -26.821701
177.897331 -75.783562 -27.128448
176.41856 -76.78878 -27.420462
177.359985 -77.45075200000001 -27.199897999999997
175.546604 -77.81525400000001 -27.355408
174.494984 -76.499504 -27.535721000000002
177.90358700000002 -74.629181 -26.878193
175.630085 -74.72479200000001 -27.281094
175.625671 -75.53936 -27.457678
173.846897 -75.136871 -27.435184000000003
174.50927000000001 -73.862549 -26.964069
179.246599 -73.934761 -26.211689
177.38340399999998 -73.130875 -26.263388
176.435726 -73.62088 -26.7337
175.57394399999998 -72.770432 -26.261741999999998
177.57711 -72.276276 -25.441565
181.139629 -74.107079 -25.519394000000002
180.651409 -72.940727 -24.963549
179.315624 -72.81913 -25.452053
179.71604000000002 -72.102142 -24.522485999999997
181.90137099999998 -72.669907 -23.860151000000002
183.519768 -74.265709 -24.142994
182.578341 -73.603752 -24.363554
183.846802 -73.52346800000001 -23.236276999999998
262.866577 -91.371696 29.330534000000004
265.021263 -93.87895999999999 27.962055
269.826595 -94.65435 25.944292
274.467674 -93.243492 24.459179000000002
276.225815 -90.472923 24.376657
274.071182 -87.96566 25.745132
269.26588100000004 -87.190422 27.762951
264.62474399999996 -88.601265 29.248070000000002
253.714687 -90.762825 28.244682
258.150711 -95.924774 25.427298999999998
268.043926 -97.521027 21.273144
277.598984 -94.61643199999999 18.215637
281.218689 -88.912514 18.045803
276.78273 -83.750587 20.863144000000002
266.889542 -82.154442 25.017342000000003
257.334408 -85.059021 28.074894
242.715851 -88.995316 23.117855
249.311844 -96.69250500000001 18.924061
264.039917 -99.068726 12.739733
278.272507 -94.732101 8.187592
283.672424 -86.22303000000001 7.9342440000000005
277.076538 -78.525887 12.128017
262.348518 -76.149582 18.312325
248.115814 -80.486145 22.864489000000003
234.61357900000002 -86.507248 14.011427
241.71626700000002 -95.46719399999999 9.351375
258.122242 -98.11409 2.46245
274.221169 -92.897552 -2.6198759999999996
280.582581 -82.873428 -2.918387
273.479984 -73.913536 1.741709
257.074032 -71.266464 8.630589
240.975008 -76.482964 13.712871
230.320478 -83.33515899999999 2.090561
236.53813200000002 -91.830597 -2.128838
251.430595 -94.233368 -8.382211
266.274132 -89.13595600000001 -13.006432
272.373711 -79.524445 -13.292689000000001
266.156136 -71.029083 -9.07329
251.26358 -68.62623599999999 -2.819917
236.419971 -73.72357199999999 1.8043040000000001
229.521046 -79.928444 -9.854919
234.283827 -86.45461999999999 -13.091016999999999
245.706757 -88.297646 -17.88747
257.09840399999996 -84.37784599999999 -21.434635
261.78582800000004 -76.991463 -21.654633
257.023155 -70.46534 -18.418556
245.60018200000002 -68.62230699999999 -13.622057999999999
234.208418 -72.542061 -10.074874000000001
231.755011 -77.361176 -18.964405
234.719097 -81.422653 -20.97831
241.828001 -82.569618 -23.963303
248.917408 -80.130188 -26.17083
251.834522 -75.533417 -26.307743
248.870506 -71.47197 -24.293819
241.761623 -70.324997 -21.308804000000002
234.672146 -72.764404 -19.101297
235.253382 -76.011887 -23.860016
236.687849 -77.977402 -24.834616
240.128155 -78.532463 -26.279184000000004
243.559006 -77.351929 -27.3475
244.970734 -75.127342 -27.413760999999997
243.536297 -73.16185 -26.439133
240.09599500000002 -72.606796 -24.99456
236.66511 -73.7873 -23.926273000000002
157.133423 -91.371696 29.330532
154.978733 -93.87895999999999 27.962055
150.173405 -94.65434300000001 25.944292
145.532326 -93.243492 24.459181
143.77419300000003 -90.472923 24.376657
145.928818 -87.96566800000001 25.745132
150.734119 -87.190422 27.762951
155.375256 -88.601265 29.248068
166.285313 -90.762825 28.244682
161.849289 -95.924774 25.427298999999998
151.956078 -97.521027 21.273144
142.401016 -94.61644 18.215639000000003
138.78131100000002 -88.912514 18.045803
143.21726999999998 -83.75059499999999 20.863144000000002
153.110458 -82.154442 25.017342000000003
162.665592 -85.05901300000001 28.074894
177.284149 -88.995316 23.117855
170.688156 -96.69250500000001 18.924061
155.960083 -99.068726 12.739733
141.727493 -94.732101 8.187592
136.32757600000002 -86.223022 7.9342440000000005
142.923462 -78.525887 12.128016
157.651485 -76.149582 18.312325
171.884186 -80.486145 22.864489000000003
185.38642099999998 -86.507248 14.011427
178.28373299999998 -95.467186 9.351375
161.877762 -98.11409 2.46245
145.77883100000003 -92.897552 -2.6198759999999996
139.417419 -82.873428 -2.918387
146.52002 -73.913528 1.741709
162.925968 -71.266464 8.630589
179.024992 -76.482964 13.712872
189.679522 -83.33515899999999 2.090561
183.46187 -91.830589 -2.128838
168.569405 -94.233368 -8.382211
153.725868 -89.13595600000001 -13.006433
147.62628899999999 -79.524445 -13.292689000000001
153.84386800000001 -71.029083 -9.07329
168.73642 -68.62623599999999 -2.819917
183.58003200000002 -73.72357199999999 1.8043040000000001
190.47895599999998 -79.92845200000001 -9.854919
185.716171 -86.45461999999999 -13.091016999999999
174.293243 -88.297646 -17.88747
162.901592 -84.377853 -21.434635
158.214176 -76.991463 -21.654633
162.976845 -70.46533199999999 -18.418556
174.399822 -68.62230699999999 -13.622059
185.791584 -72.542061 -10.074874000000001
188.24498699999998 -77.361176 -18.964407
185.280905 -81.422646 -20.97831
178.171999 -82.569611 -23.963303
171.082592 -80.130188 -26.170832
168.165478 -75.533417 -26.307745
171.129494 -71.47197 -24.293819
178.238377 -70.324997 -21.308804000000002
185.327854 -72.764397 -19.101297
184.74661600000002 -76.01187900000001 -23.860016
183.312151 -77.977402 -24.834616
179.871845 -78.532471 -26.279184000000004
176.440994 -77.351929 -27.347497999999998
175.029266 -75.127342 -27.413760999999997
176.463703 -73.16185 -26.439133
179.90400499999998 -72.606789 -24.994562
183.33489 -73.7873 -23.926273000000002
264.517181 -92.562485 28.746807
258.968548 -91.224762 29.279226
264.334423 -90.130096 29.339515999999996
267.724957 -94.075439 27.186131
262.156494 -94.934372 27.254509000000002
272.078674 -93.782578 25.571716000000002
269.266205 -96.08157299999999 24.269142000000002
275.027985 -91.8554 24.849204999999998
276.132896 -93.994171 22.071861
274.84523 -89.422913 25.441879
278.734146 -89.89502 21.94978
271.63752 -87.910065 27.002584000000002
275.54628 -86.18541 23.974483
267.283775 -88.203018 28.617039000000002
268.436607 -85.038391 26.959919
261.569839 -87.125778 29.157211
254.976341 -93.63580300000001 27.145328999999997
248.096214 -90.009125 26.18832
254.534286 -87.751717 28.579063
262.736 -97.295563 23.370043
253.724678 -96.558655 22.613628
273.267765 -96.587082 19.464760000000002
266.277298 -98.583939 17.342793
280.40222900000003 -91.925308 17.717052
278.400848 -94.898575 13.463398000000002
279.960205 -86.04117600000001 19.150757000000002
282.993576 -87.66145300000001 13.247936
272.200626 -82.381493 22.926006
277.365189 -81.111954 16.822571
261.668808 -83.090065 26.831394
264.812588 -79.08669300000001 22.093412
252.68895700000002 -82.772018 25.972866
244.567497 -93.284622 21.483559
238.088005 -87.804901 19.044121
243.919117 -84.499237 23.619633
256.12712899999997 -98.745346 15.857652999999999
245.224258 -96.32713299999999 14.4651
271.82653 -97.682602 10.037469999999999
261.31699000000003 -98.923508 7.707722
282.469139 -90.71904 7.432453
276.939293 -94.073212 2.7304049999999997
281.820831 -81.933777 9.568546000000001
282.939903 -84.617554 2.448845
270.261299 -76.473007 15.194401000000001
275.803795 -76.09536700000001 7.027889
254.561874 -77.535667 21.014603
259.711121 -73.498856 13.785229000000001
244.08868 -78.349091 18.762520000000002
236.528912 -91.51733399999999 12.197871000000001
232.100712 -85.035202 8.261885000000001
236.127045 -81.226112 14.562215
249.272812 -97.809349 5.937269000000001
238.81753 -93.99575 3.750346
266.893478 -96.416306 -0.552297
254.728981 -96.56289699999999 -2.930925
279.069084 -88.15448 -3.4691989999999997
270.514458 -91.232887 -7.868119999999999
278.66729699999996 -77.863388 -1.104808
276.927109 -81.128067 -8.169052
265.923454 -71.57132 5.155811
270.21034199999997 -72.16757199999999 -3.6574800000000005
248.302765 -72.96417199999999 11.645294
254.298855 -69.600311 3.0237580000000004
238.513325 -74.930267 7.960921000000001
231.92086 -88.100876 0.450775
229.414251 -81.571152 -4.087519
231.856804 -78.285202 2.582928
243.364544 -94.00874300000001 -5.226426999999999
234.995487 -89.218826 -7.879734
259.484188 -92.547974 -11.123113
248.381382 -91.378555 -13.500464000000001
270.837326 -84.574371 -13.785038
261.730659 -86.785156 -17.6572
270.77338399999996 -74.758759 -11.652922
267.22364 -78.12944 -17.915001
259.329697 -68.850922 -5.975683
261.642521 -70.481827 -14.122812
243.209927 -70.311554 -0.07903400000000001
248.256527 -68.322067 -8.50205
234.90713499999998 -72.915405 -4.345289
230.74477000000002 -83.58985899999999 -11.112514
230.395386 -78.50190699999999 -14.8997
230.703911 -76.047974 -9.477449
239.518969 -88.126755 -15.466883
234.250946 -83.784935 -17.51935
251.886581 -87.000961 -19.989914000000002
243.497993 -85.276886 -21.40214
260.60292100000004 -80.871925 -22.032055
252.719696 -82.10376 -24.273623999999998
260.56215299999997 -73.330078 -20.397083
256.51419799999996 -76.12439 -24.451714000000003
251.78803299999998 -68.793213 -16.042652
252.65873 -70.841385 -21.832066
239.420273 -69.918968 -11.519617
243.411697 -69.349434 -17.949238
234.189899 -72.522545 -15.077753
232.52499 -79.635834 -19.752295
233.481339 -76.514969 -22.012989
232.49958800000002 -74.947128 -18.735832000000002
237.97984300000002 -82.456352 -22.459328
235.603691 -79.42305 -23.45496
245.668602 -81.756439 -25.271236
240.693773 -80.24427800000001 -25.592266
251.087429 -77.94612099999999 -26.540813
245.769882 -78.49762 -27.172886
251.062027 -73.25747700000001 -25.524368
247.858589 -75.206253 -27.270922
245.607277 -70.43693499999999 -22.817284
245.73629 -72.298203 -25.828917999999998
237.918449 -71.13685600000001 -20.005394
240.64621 -71.476974 -23.691605
235.570053 -73.223602 -22.111017
236.186184 -76.82663000000001 -24.641504
236.175711 -74.895454 -24.222868
238.432919 -77.988327 -25.756466
241.599718 -77.70005 -26.914623
243.8316 -76.130676 -27.437531
243.82114 -74.19953199999999 -27.018887
241.574434 -73.037842 -25.903896
238.407606 -73.326111 -24.745766
161.031448 -91.224762 29.279226
155.482819 -92.562485 28.746807
155.66557699999998 -90.130104 29.339515999999996
157.843502 -94.934372 27.254509000000002
152.275043 -94.075439 27.186131
150.733795 -96.08157299999999 24.269142000000002
147.921326 -93.782578 25.571716000000002
143.86710399999998 -93.994179 22.071863
144.972015 -91.8554 24.849207
141.265854 -89.89502 21.94978
145.15476999999998 -89.422913 25.441876999999998
144.45371999999998 -86.18541 23.974483
148.36248 -87.910065 27.002585999999997
151.56339300000002 -85.038391 26.959916999999997
152.716225 -88.203018 28.617039000000002
158.430161 -87.125778 29.157213
171.903786 -90.009125 26.18832
165.023666 -93.63580300000001 27.145328999999997
165.46571 -87.751717 28.579063
166.275322 -96.558655 22.613628
157.264 -97.295563 23.370043
153.722702 -98.583931 17.342793
146.732231 -96.587082 19.464760000000002
141.599152 -94.898575 13.463398000000002
139.597763 -91.925308 17.717052
137.00642399999998 -87.66145300000001 13.247933999999999
140.039795 -86.04118299999999 19.150757000000002
142.634819 -81.111961 16.822569
147.799374 -82.381493 22.926008
155.187412 -79.08669300000001 22.093412
158.331192 -83.090065 26.831391999999997
167.31104299999998 -82.77201099999999 25.972866
181.911995 -87.804901 19.044121
175.432503 -93.284622 21.483559
176.080883 -84.499237 23.619633
174.775742 -96.32713299999999 14.4651
163.872871 -98.745338 15.857652999999999
158.68301 -98.923508 7.707722
148.17347 -97.682602 10.037469999999999
143.06071500000002 -94.073212 2.7304049999999997
137.53086100000002 -90.71904 7.432453
137.06009699999998 -84.617554 2.448845
138.179169 -81.933777 9.568545
144.19620500000002 -76.09536700000001 7.027889999999999
149.738701 -76.473007 15.194401999999998
160.288879 -73.498856 13.785229000000001
165.438129 -77.535667 21.014603
175.911324 -78.349091 18.762520000000002
187.899288 -85.035202 8.261885000000001
183.471088 -91.51733399999999 12.197871000000001
183.872955 -81.226105 14.562215
181.18247 -93.99575 3.750346
170.727188 -97.809349 5.937268
165.271019 -96.562889 -2.930925
153.10652199999998 -96.416313 -0.552297
149.485542 -91.23288000000001 -7.868119999999999
140.930908 -88.15448 -3.4691989999999997
143.072891 -81.128067 -8.169052
141.332703 -77.863388 -1.104808
149.789658 -72.16757199999999 -3.6574809999999998
154.076546 -71.57132 5.155811
165.701145 -69.60030400000001 3.0237580000000004
171.697235 -72.96417199999999 11.645294
181.486675 -74.93026 7.960921000000001
190.585747 -81.571152 -4.087519
188.07914 -88.100876 0.450775
188.143196 -78.285202 2.582928
185.004513 -89.218826 -7.879734
176.635456 -94.00874300000001 -5.226426999999999
171.618614 -91.378555 -13.500464000000001
160.515816 -92.547974 -11.123113
158.269341 -86.785156 -17.6572
149.16267399999998 -84.574371 -13.785038
152.77636 -78.12943299999999 -17.915001
149.226616 -74.75876600000001 -11.652922
158.357483 -70.481827 -14.122812
160.670303 -68.85092900000001 -5.975683
171.74347699999998 -68.322067 -8.50205
176.790073 -70.311554 -0.07903400000000001
185.092863 -72.915413 -4.345289
189.604612 -78.50190699999999 -14.899701
189.255228 -83.58985899999999 -11.112514
189.296089 -76.047974 -9.477449
185.749054 -83.784935 -17.51935
180.481031 -88.126755 -15.466883
176.502007 -85.276886 -21.402138
168.113419 -87.000961 -19.989914000000002
167.280304 -82.10376 -24.273623999999998
159.397076 -80.871933 -22.032053
163.485802 -76.12439 -24.451714000000003
159.437847 -73.330078 -20.397083
167.34127 -70.841385 -21.832066
168.21196700000002 -68.793205 -16.042652
176.588303 -69.349434 -17.949238
180.579725 -69.918968 -11.519617
185.810101 -72.522537 -15.077753
186.51866 -76.514969 -22.012989
187.47501 -79.635826 -19.752295
187.50041199999998 -74.947128 -18.735832000000002
184.396309 -79.42305 -23.45496
182.02015699999998 -82.456345 -22.459328
179.306227 -80.244286 -25.592266
174.331398 -81.756439 -25.271236
174.230118 -78.49762 -27.172886
168.912567 -77.94612099999999 -26.540813
172.141415 -75.206253 -27.270922
168.937973 -73.257469 -25.524368
174.26371 -72.298203 -25.828917999999998
174.392723 -70.436943 -22.817284
179.35379 -71.476974 -23.691605
182.081551 -71.13685600000001 -20.005394
184.429947 -73.223602 -22.111019
183.813816 -76.82663000000001 -24.641504
183.82429100000002 -74.895454 -24.22287
181.567081 -77.988327 -25.756466
178.400284 -77.70004300000001 -26.914623
176.1684 -76.130676 -27.437531
176.17886 -74.199524 -27.018887
178.425568 -73.037842 -25.903894
181.592396 -73.326111 -24.745766
270.110538 -91.21664399999999 27.859957
259.69783 -89.088768 29.492825
260.01123 -93.260124 28.476390999999996
265.512283 -95.854691 25.799969
272.97855 -95.352432 23.031397
278.036377 -92.047531 21.792370000000002
277.722977 -87.87604499999999 22.808754
272.22202300000004 -85.281616 25.485198999999998
264.755711 -85.78398100000001 28.253845000000002
249.116959 -86.184738 26.616221999999997
249.678413 -93.65840899999999 24.795212
259.534264 -98.30675500000001 20.000099
272.911064 -97.40683 15.039832999999998
281.972824 -91.485825 12.820028
281.4114 -84.012199 14.641032999999998
271.555634 -79.363861 19.436066
258.178787 -80.26379399999999 24.396427
239.45292899999998 -82.813126 19.590017
240.068556 -92.558929 17.26041
252.660828 -98.586258 11.115046000000001
269.853348 -97.36438000000001 4.753712999999999
281.574951 -89.609238 1.902929
280.959435 -79.863586 4.23257
268.36726 -73.836197 10.377937
251.17472800000002 -75.05792199999999 16.739207999999998
233.690033 -79.721863 8.790371
233.854959 -90.057114 6.507838
246.12162 -96.306229 0.44030600000000003
263.30426 -94.808456 -5.858006
275.337753 -86.44136 -8.697554
275.172897 -76.106201 -6.41499
262.906242 -69.857063 -0.34744
245.723541 -71.354675 5.950807
230.800388 -77.02381899999999 -3.64519
230.84827 -85.86177099999999 -5.561225
241.130253 -91.178322 -10.663897
255.623184 -89.859039 -15.964209
265.83743300000003 -82.67675 -18.357281
265.789696 -73.838837 -16.441343
255.507736 -68.522354 -11.338612
241.014637 -69.841545 -6.038312
231.35294199999998 -75.36061099999999 -14.594135999999999
231.386013 -81.465874 -15.917732
238.48888599999998 -85.13855699999999 -19.44264
248.500645 -84.227203 -23.104097
255.556648 -79.265671 -24.757248
255.52359 -73.160446 -23.433706
