406.89070100000004 1.7246 22.577602
399.135365 1.7246 7.912102
426.834471 18.356945 27.625271
430.069414 23.787193 23.815639
443.01552200000003 23.787193 28.100022999999997
441.881866 18.356945 32.595001
423.736565 10.937869000000001 31.103405
440.796235 10.937869000000001 36.698853
439.898867 1.7246 39.841637
421.175873 1.7246 33.766994
452.340831 36.700245 4.515192
456.189415 36.012436 7.507217
452.26748299999997 36.012436 8.80514
455.651252 36.700245 1.8702599999999998
461.020604 36.012436 1.8116560000000002
459.39610400000004 36.012436 4.945168
455.651252 36.700245 -1.8702599999999998
459.39610400000004 36.012436 -4.945168
461.020604 36.012436 -1.8116560000000002
452.340831 36.700245 -4.515192
452.26748299999997 36.012436 -8.80514
456.189415 36.012436 -7.507217
447.659169 36.700245 -4.515192
443.810585 36.012436 -7.507217
447.73251700000003 36.012436 -8.80514
444.348748 36.700245 -1.8702599999999998
438.979396 36.012436 -1.8116560000000002
440.60389599999996 36.012436 -4.945168
444.348748 36.700245 1.8702599999999998
440.60389599999996 36.012436 4.945168
438.979396 36.012436 1.8116560000000002
447.659169 36.700245 4.515192
447.73251700000003 36.012436 8.80514
443.810585 36.012436 7.507217
452.74666 35.473007 10.891707
456.35830699999997 34.800789 12.264403
453.749709 34.006809000000004 15.070039000000001
450.0 34.810444 13.231029000000001
461.70980299999997 34.810444 9.355777999999999
460.685943 34.006809000000004 12.774559
457.697255 35.473007 9.253359
463.455155 32.001083 16.07799
458.33349 33.07312 16.074265
465.42381 33.07312 12.323122
450.0 33.07312 17.42749
454.715228 32.001083 18.970385
461.581602 35.473007 6.149883999999999
465.350286 34.800789 5.0800980000000004
465.988822 34.006809000000004 8.537736
466.560137 34.810444 0.0
468.861893 34.006809000000004 2.995902
463.632188 35.473007 2.194503
473.743694 32.001083 3.7673129999999997
470.11881800000003 33.07312 6.658192
471.812553 33.07312 0.0
470.123497 32.001083 10.750223
463.632188 35.473007 -2.194503
465.350286 34.800789 -5.0800980000000004
468.861893 34.006809000000004 -2.995902
461.70980299999997 34.810444 -9.355777999999999
465.988822 34.006809000000004 -8.537736
461.581602 35.473007 -6.149883999999999
470.123497 32.001083 -10.750223
470.11881800000003 33.07312 -6.658192
465.42381 33.07312 -12.323122
473.743694 32.001083 -3.7673129999999997
457.697255 35.473007 -9.253359
456.35830699999997 34.800789 -12.264403
460.685943 34.006809000000004 -12.774559
450.0 34.810444 -13.231029000000001
453.749709 34.006809000000004 -15.070039000000001
452.74666 35.473007 -10.891707
454.715228 32.001083 -18.970385
458.33349 33.07312 -16.074265
450.0 33.07312 -17.42749
463.455155 32.001083 -16.07799
447.25334 35.473007 -10.891707
443.64169300000003 34.800789 -12.264403
446.250291 34.006809000000004 -15.070039000000001
438.29019700000003 34.810444 -9.355777999999999
439.314057 34.006809000000004 -12.774559
442.302745 35.473007 -9.253359
436.544845 32.001083 -16.07799
441.66651 33.07312 -16.074265
434.57619 33.07312 -12.323122
445.284772 32.001083 -18.970385
438.418398 35.473007 -6.149883999999999
434.649714 34.800789 -5.0800980000000004
434.011178 34.006809000000004 -8.537736
433.439863 34.810444 0.0
431.138107 34.006809000000004 -2.995902
436.367812 35.473007 -2.194503
426.256306 32.001083 -3.7673129999999997
429.88118199999997 33.07312 -6.658192
428.187447 33.07312 -0.0
429.876503 32.001083 -10.750223
436.367812 35.473007 2.194503
434.649714 34.800789 5.0800980000000004
431.138107 34.006809000000004 2.995902
438.29019700000003 34.810444 9.355777999999999
434.011178 34.006809000000004 8.537736
438.418398 35.473007 6.149883999999999
429.876503 32.001083 10.750223
429.88118199999997 33.07312 6.658192
434.57619 33.07312 12.323122
426.256306 32.001083 3.7673129999999997
442.302745 35.473007 9.253359
443.64169300000003 34.800789 12.264403
439.314057 34.006809000000004 12.774559
446.250291 34.006809000000004 15.070039000000001
447.25334 35.473007 10.891707
445.284772 32.001083 18.970385
441.66651 33.07312 16.074265
436.544845 32.001083 16.07799
460.10653 30.787243 19.494204
455.565896 29.395264 22.39278
450.0 30.787243 21.135345
468.705397 30.787243 14.944970000000001
465.882586 29.395264 18.978573
468.433197 25.931572 22.026363
461.770692 27.788818 22.70414
471.785473 27.788818 17.405823
450.0 27.788818 24.615513
456.459733 25.931572 25.988861
474.399336 30.787243 8.074777000000001
473.753965 29.395264 12.689638
476.453442 30.787243 0.0
478.027294 29.395264 4.446961
482.528255 25.931572 5.161105
478.41699800000004 27.788818 9.404377
480.809345 27.788818 0.0
477.568661 25.931572 14.727482
474.399336 30.787243 -8.074777000000001
478.027294 29.395264 -4.446961
468.705397 30.787243 -14.944970000000001
473.753965 29.395264 -12.689638
477.568661 25.931572 -14.727482
478.41700000000003 27.788818 -9.404377
471.785473 27.788818 -17.405823
482.528255 25.931572 -5.161105
460.10653 30.787243 -19.494204
465.882586 29.395264 -18.978573
450.0 30.787243 -21.135345
455.565896 29.395264 -22.39278
456.459733 25.931572 -25.988861
461.770693 27.788818 -22.70414
450.0 27.788818 -24.615513
468.433199 25.931572 -22.026363
439.89347 30.787243 -19.494204
444.434104 29.395264 -22.39278
431.294603 30.787243 -14.944970000000001
434.117414 29.395264 -18.978573
431.566803 25.931572 -22.026363
438.229308 27.788818 -22.70414
428.214527 27.788818 -17.405823
443.540267 25.931572 -25.988861
425.600664 30.787243 -8.074777000000001
426.246035 29.395264 -12.689638
423.546558 30.787243 -0.0
421.972706 29.395264 -4.446961
417.471745 25.931572 -5.161105
421.58300199999996 27.788818 -9.404377
419.190655 27.788818 0.0
422.431339 25.931572 -14.727482
425.600664 30.787243 8.074777000000001
421.972706 29.395264 4.446961
431.294603 30.787243 14.944970000000001
426.246035 29.395264 12.689638
422.431339 25.931572 14.727482
421.58299999999997 27.788818 9.404377
428.214527 27.788818 17.405823
417.471745 25.931572 5.161105
439.89347 30.787243 19.494204
434.117414 29.395264 18.978573
444.434104 29.395264 22.39278
443.540267 25.931572 25.988861
438.229307 27.788818 22.70414
431.566801 25.931572 22.026363
461.43234 -59.048336 38.056637
472.353529 -61.583293999999995 34.819702
461.315157 -63.903355000000005 35.908833
450.0 -61.583293999999995 37.751059999999995
491.372414 -61.583293999999995 26.694022999999998
482.288403 -63.903351 30.433811
482.622791 -59.048336 32.254143
481.647408 -68.076378 28.460976000000002
472.025824 -66.05291700000001 32.741207
490.765888 -66.05291 25.100573999999998
450.0 -66.05291700000001 35.497589000000005
461.090527 -68.076385 33.581089
498.790565 -59.048336 21.566055
503.966194 -61.583293999999995 14.422787
498.290447 -63.903351 20.348928
508.509434 -61.583293999999995 0.0
506.977844 -63.903351 7.131083
507.567947 -59.048336 7.557614
505.846695 -68.076378 6.668817999999999
503.175026 -66.05291 13.561845000000002
507.651657 -66.05291 0.0
497.331768 -68.076378 19.029831
507.567947 -59.048336 -7.557614
503.966194 -61.583293999999995 -14.422787
506.977844 -63.903351 -7.131083
491.372414 -61.583293999999995 -26.694022999999998
498.290447 -63.903351 -20.348928
498.790565 -59.048336 -21.566055
497.331768 -68.076378 -19.029831
503.175026 -66.05291 -13.561845000000002
490.765888 -66.05291 -25.100573999999998
505.846695 -68.076378 -6.668817999999999
482.622791 -59.048336 -32.254143
472.353529 -61.583293999999995 -34.819702
482.288403 -63.903351 -30.433811
450.0 -61.583293999999995 -37.751059999999995
461.315157 -63.903351 -35.908833
461.43234 -59.048336 -38.056637
461.090527 -68.076378 -33.581089
472.025824 -66.05291 -32.741207
450.0 -66.05291 -35.497589000000005
481.647408 -68.076378 -28.460976000000002
438.56766 -59.048336 -38.056637
427.646471 -61.583293999999995 -34.819702
438.684843 -63.903351 -35.908833
408.627586 -61.583293999999995 -26.694022999999998
417.711597 -63.903351 -30.433811
417.377209 -59.048336 -32.254143
418.352592 -68.076378 -28.460976000000002
427.974176 -66.05291 -32.741207
409.234112 -66.05291 -25.100573999999998
438.909473 -68.076378 -33.581089
401.209435 -59.048336 -21.566055
396.033806 -61.583293999999995 -14.422787
401.709553 -63.903351 -20.348928
391.490566 -61.583293999999995 -0.0
393.022156 -63.903351 -7.131083
392.432053 -59.048336 -7.557614
394.153305 -68.076378 -6.668817999999999
396.824974 -66.05291 -13.561845000000002
392.348343 -66.05291 -0.0
402.668232 -68.076378 -19.029831
392.432053 -59.048336 7.557614
396.033806 -61.583293999999995 14.422787
393.022156 -63.903351 7.131083
408.627586 -61.583293999999995 26.694022999999998
401.709553 -63.903351 20.348928
401.209435 -59.048336 21.566055
402.668232 -68.076378 19.029831
396.824974 -66.05291 13.561845000000002
409.234112 -66.05291 25.100573999999998
394.153305 -68.076378 6.668817999999999
417.377209 -59.048336 32.254143
427.646471 -61.583293999999995 34.819702
417.711597 -63.903351 30.433811
438.684843 -63.903355000000005 35.908833
438.56766 -59.048336 38.056637
438.909473 -68.076385 33.581089
427.974176 -66.05291700000001 32.741207
418.352592 -68.076378 28.460976000000002
471.455753 -70.018158 30.381474
460.732503 -71.860947 30.890327000000003
450.0 -70.01816600000001 32.939201000000004
489.710789 -70.018158 23.291515
480.625769 -71.860947 26.180473000000003
479.25293 -75.180328 23.714760000000002
470.627977 -73.58744 27.722332
488.178722 -73.58744 21.252922
450.0 -73.58744 30.056192
460.251405 -75.180328 27.981031
501.79875200000004 -70.018158 12.58441
495.80381 -71.860947 17.505020000000002
506.159515 -70.018158 0.0
504.043861 -71.860947 6.134462999999999
501.621284 -75.180328 5.556711
499.800331 -73.58744 11.482957
503.992855 -73.58744 -0.0
493.750603 -75.180328 15.856373999999999
501.79875200000004 -70.018158 -12.58441
504.043861 -71.860947 -6.134462999999999
489.710789 -70.018158 -23.291515
495.80381 -71.860947 -17.505020000000002
493.750603 -75.180328 -15.856373999999999
499.800331 -73.58744 -11.482957
488.178722 -73.58744 -21.252922
501.621284 -75.180328 -5.556711
471.455753 -70.018158 -30.381474
480.625769 -71.860947 -26.180473000000003
450.0 -70.018158 -32.939201000000004
460.732503 -71.860947 -30.890327000000003
460.251405 -75.180328 -27.981031
470.627977 -73.58744 -27.722332
450.0 -73.58744 -30.056192
479.25293 -75.180328 -23.714760000000002
428.544247 -70.018158 -30.381474
439.267497 -71.860947 -30.890327000000003
410.289211 -70.018158 -23.291515
419.374231 -71.860947 -26.180473000000003
420.74707 -75.180328 -23.714760000000002
429.372023 -73.58744 -27.722332
411.821278 -73.58744 -21.252922
439.748595 -75.180328 -27.981031
398.20124799999996 -70.018158 -12.58441
404.19619 -71.860947 -17.505020000000002
393.840485 -70.018158 -0.0
395.956139 -71.860947 -6.134462999999999
398.378716 -75.180328 -5.556711
400.199669 -73.58744 -11.482957
396.007145 -73.58744 0.0
406.249397 -75.180328 -15.856373999999999
398.20124799999996 -70.018158 12.58441
395.956139 -71.860947 6.134462999999999
410.289211 -70.018158 23.291515
404.19619 -71.860947 17.505020000000002
406.249397 -75.180328 15.856373999999999
400.199669 -73.58744 11.482957
411.821278 -73.58744 21.252922
398.378716 -75.180328 5.556711
428.544247 -70.018158 30.381474
419.374231 -71.860947 26.180473000000003
439.267497 -71.860947 30.890327000000003
439.748595 -75.180328 27.981031
429.372023 -73.58744 27.722332
420.74707 -75.180328 23.714760000000002
469.574619 -76.622314 24.951181
459.664608 -77.901825 25.06329
450.0 -76.622314 27.051746
486.229145 -76.622314 19.128462
477.578474 -77.901825 21.241889999999998
475.669357 -79.927132 18.995878
468.335773 -79.007286 22.296858
483.936256 -79.007286 17.093564999999998
450.0 -79.007286 24.173962
458.995578 -79.927132 22.413221
497.257301 -76.622314 10.335111
491.246284 -77.901825 14.202942000000002
501.23574099999996 -76.622314 -0.0
498.666443 -77.901825 4.977282
495.297501 -79.927132 4.45101
494.266457 -79.007286 9.235657000000002
497.99309500000004 -79.007286 0.0
488.39101 -79.927132 12.701195
497.257301 -76.622314 -10.335111
498.666443 -77.901825 -4.977282
486.229145 -76.622314 -19.128462
491.246284 -77.901825 -14.202942000000002
488.39101 -79.927132 -12.701195
494.266457 -79.007286 -9.235657000000002
483.936256 -79.007286 -17.093564999999998
495.297501 -79.927132 -4.45101
469.574619 -76.622314 -24.951181
477.578474 -77.901825 -21.241889999999998
450.0 -76.622314 -27.051746
459.664608 -77.901825 -25.06329
458.995578 -79.927132 -22.413221
468.335773 -79.007286 -22.296858
450.0 -79.007286 -24.173962
475.669357 -79.927132 -18.995878
430.425381 -76.622314 -24.951181
440.335392 -77.901825 -25.06329
413.770855 -76.622314 -19.128462
422.421526 -77.901825 -21.241889999999998
424.330643 -79.927132 -18.995878
431.664227 -79.007286 -22.296858
416.063744 -79.007286 -17.093564999999998
441.004422 -79.927132 -22.413221
402.742699 -76.622314 -10.335111
408.753716 -77.901825 -14.202942000000002
398.76425900000004 -76.622314 0.0
401.333557 -77.901825 -4.977282
404.702499 -79.927132 -4.45101
405.733543 -79.007286 -9.235657000000002
402.00690499999996 -79.007286 0.0
411.60899 -79.927132 -12.701195
402.742699 -76.622314 10.335111
401.333557 -77.901825 4.977282
413.770855 -76.622314 19.128462
408.753716 -77.901825 14.202942000000002
411.60899 -79.927132 12.701195
405.733543 -79.007286 9.235657000000002
416.063744 -79.007286 17.093564999999998
404.702499 -79.927132 4.45101
430.425381 -76.622314 24.951181
422.421526 -77.901825 21.241889999999998
440.335392 -77.901825 25.06329
441.004422 -79.927132 22.413221
431.664227 -79.007286 22.296858
424.330643 -79.927132 18.995878
466.959499 -80.649788 20.029636
458.214777 -81.19787600000001 20.087217000000003
450.0 -80.649788 21.715868
481.389015 -80.649788 15.355432999999998
473.40216399999997 -81.19787600000001 17.02829
469.493887 -81.860809 14.240029999999999
465.030527 -81.594009 17.606302
477.656445 -81.594009 13.418830999999999
450.0 -81.594009 18.977098
456.968595 -81.860809 16.757307
490.943825 -80.649788 8.296543
485.019596 -81.19787600000001 11.379316000000001
494.390743 -80.649788 0.0
491.31039799999996 -81.19787600000001 3.994425
484.537079 -81.860809 3.381139
486.286869 -81.594009 7.2927669999999996
489.112087 -81.594009 0.0
479.348953 -81.860809 9.458373
490.943825 -80.649788 -8.296543
491.31039799999996 -81.19787600000001 -3.994425
481.389015 -80.649788 -15.355432999999998
485.019596 -81.19787600000001 -11.379316000000001
479.348953 -81.860809 -9.458373
486.286869 -81.594009 -7.2927669999999996
477.656445 -81.594009 -13.418830999999999
484.537079 -81.860809 -3.381139
466.959499 -80.649788 -20.029636
473.40216399999997 -81.19787600000001 -17.02829
450.0 -80.649788 -21.715868
458.214777 -81.19787600000001 -20.087217000000003
456.968595 -81.860809 -16.757307
465.030527 -81.594009 -17.606302
450.0 -81.594009 -18.977098
469.493887 -81.860809 -14.240029999999999
433.040501 -80.649788 -20.029636
441.785223 -81.19787600000001 -20.087217000000003
418.610985 -80.649788 -15.355432999999998
426.59783600000003 -81.19787600000001 -17.02829
430.506113 -81.860809 -14.240029999999999
434.969473 -81.594009 -17.606302
422.343555 -81.594009 -13.418830999999999
443.031405 -81.860809 -16.757307
409.056175 -80.649788 -8.296543
414.980404 -81.19787600000001 -11.379316000000001
405.609257 -80.649788 0.0
408.68960200000004 -81.19787600000001 -3.994425
415.462921 -81.860809 -3.381139
413.713131 -81.594009 -7.2927669999999996
410.887913 -81.594009 0.0
420.651047 -81.860809 -9.458373
409.056175 -80.649788 8.296543
408.68960200000004 -81.19787600000001 3.994425
418.610985 -80.649788 15.355432999999998
414.980404 -81.19787600000001 11.379316000000001
420.651047 -81.860809 9.458373
413.713131 -81.594009 7.2927669999999996
422.343555 -81.594009 13.418830999999999
415.462921 -81.860809 3.381139
433.040501 -80.649788 20.029636
426.59783600000003 -81.19787600000001 17.02829
441.785223 -81.19787600000001 20.087217000000003
443.031405 -81.860809 16.757307
434.969473 -81.594009 17.606302
430.506113 -81.860809 14.240029999999999
461.670254 -82.020882 13.670171
455.645949 -82.100922 11.156863000000001
450.0 -82.020882 14.263901999999998
470.78764 -82.020882 10.086098
462.267284 -82.100922 9.826138
450.0 -82.127602 6.57538
459.582698 -82.127602 4.649495
478.174459 -82.020882 5.662368
470.25185 -82.100922 5.952046
479.398136 -82.020882 0.0
472.994488 -82.100922 2.739395
463.551973 -82.127602 0.0
478.174459 -82.020882 -5.662368
472.994488 -82.100922 -2.739395
470.78764 -82.020882 -10.086098
470.25185 -82.100922 -5.952046
459.582698 -82.127602 -4.649495
461.670254 -82.020882 -13.670171
462.267284 -82.100922 -9.826138
450.0 -82.020882 -14.263901999999998
455.645949 -82.100922 -11.156863000000001
450.0 -82.127602 -6.57538
438.329746 -82.020882 -13.670171
444.354051 -82.100922 -11.156863000000001
429.21236 -82.020882 -10.086098
437.732716 -82.100922 -9.826138
440.417302 -82.127602 -4.649495
421.825541 -82.020882 -5.662368
429.74815 -82.100922 -5.952046
420.601864 -82.020882 0.0
427.005512 -82.100922 -2.739395
436.448026 -82.127602 0.0
421.825541 -82.020882 5.662368
427.005512 -82.100922 2.739395
429.21236 -82.020882 10.086098
429.74815 -82.100922 5.952046
440.417302 -82.127602 4.649495
438.329746 -82.020882 13.670171
437.732716 -82.100922 9.826138
444.354051 -82.100922 11.156863000000001
491.66367 -49.500183 29.653948
482.733799 -53.103638000000004 34.045246
472.510891 -49.500183 38.68063
482.656265 -45.34684 35.461441
472.50167799999997 -56.25407 36.840675
491.646618 -56.25407 28.243376
450.0 -56.25407 39.942177
461.47124099999996 -53.103638000000004 40.169959999999996
461.444071 -45.34684 41.840923
450.0 -49.500183 41.937031
508.921345 -49.500183 0.0
507.763847 -53.103638000000004 7.9772940000000006
504.346115 -49.500183 16.022033999999998
507.627018 -45.34684 8.309132
504.323875 -56.25407 15.259901999999999
508.89723200000003 -56.25407 0.0
498.956593 -53.103638000000004 22.763638
498.84063000000003 -45.34684 23.71055
491.66367 -49.500183 -29.653948
498.956593 -53.103638000000004 -22.763638
504.346115 -49.500183 -16.022033999999998
498.84063000000003 -45.34684 -23.71055
504.323875 -56.25407 -15.259901999999999
491.646618 -56.25407 -28.243376
507.763847 -53.103638000000004 -7.9772940000000006
507.627018 -45.34684 -8.309132
450.0 -49.500183 -41.937031
461.47124099999996 -53.103638000000004 -40.169959999999996
472.510891 -49.500183 -38.68063
461.444071 -45.34684 -41.840923
472.50167799999997 -56.25407 -36.840675
450.0 -56.25407 -39.942177
482.733799 -53.103638000000004 -34.045246
482.656265 -45.34684 -35.461441
408.33633 -49.500183 -29.653941999999997
417.266201 -53.103638000000004 -34.045242
427.489109 -49.500183 -38.680626000000004
417.343735 -45.34684 -35.46143
427.49832200000003 -56.25407 -36.840675
408.353382 -56.25407 -28.243376
438.52875900000004 -53.103638000000004 -40.169959999999996
438.555929 -45.34684 -41.840919
391.078655 -49.500183 0.0
392.236153 -53.103638000000004 -7.9772940000000006
395.653885 -49.500183 -16.022032
392.372982 -45.34684 -8.309127
395.676125 -56.25407 -15.259901999999999
391.10276799999997 -56.25407 -0.0
401.043407 -53.103638000000004 -22.763635999999998
401.15936999999997 -45.34684 -23.710541
408.33633 -49.500183 29.653941999999997
401.043407 -53.103638000000004 22.763635999999998
395.653885 -49.500183 16.022032
401.15936999999997 -45.34684 23.710541
395.676125 -56.25407 15.259901999999999
408.353382 -56.25407 28.243376
392.236153 -53.103638000000004 7.9772940000000006
392.372982 -45.34684 8.309127
438.52875900000004 -53.103638000000004 40.169959999999996
427.489109 -49.500183 38.680626000000004
438.555929 -45.34684 41.840919
427.49832200000003 -56.25407 36.840675
417.266201 -53.103638000000004 34.045242
417.343735 -45.34684 35.46143
461.19431299999997 -24.230526 42.771194
472.158924 -29.79215 40.279301000000004
461.356739 -35.296378999999995 42.661011
450.0 -29.79215 43.670258000000004
491.01223400000003 -29.79215 30.879578000000002
482.407059 -35.296378999999995 36.156509
481.94356700000003 -24.230526 36.249912
472.399591 -40.546757 39.868813
491.457672 -40.546757 30.564863
450.0 -40.546757 43.225231
497.774712 -24.230526 24.237766
503.49636499999997 -29.79215 16.684254
498.467911 -35.296378999999995 24.175306
508.000046 -29.79215 0.0
507.187233 -35.296378999999995 8.472002
506.369324 -24.230526 8.493893
504.0774 -40.546757 16.514206
508.630005 -40.546757 0.0
506.369324 -24.230526 -8.493893
503.49636499999997 -29.79215 -16.684254
507.187233 -35.296378999999995 -8.472002
491.01223400000003 -29.79215 -30.879578000000002
498.467911 -35.296378999999995 -24.175306
497.774712 -24.230526 -24.237766
504.0774 -40.546757 -16.514206
491.457672 -40.546757 -30.564863
481.94356700000003 -24.230526 -36.249912
472.158924 -29.79215 -40.279301000000004
482.407059 -35.296378999999995 -36.156509
450.0 -29.79215 -43.670258000000004
461.356739 -35.296378999999995 -42.661011
461.19431299999997 -24.230526 -42.771194
472.399591 -40.546757 -39.868813
450.0 -40.546757 -43.225231
438.80568800000003 -24.230526 -42.771179
427.841076 -29.79215 -40.279270000000004
438.643262 -35.296378999999995 -42.660999
408.98776599999997 -29.79215 -30.879535999999998
417.592941 -35.296378999999995 -36.156479
418.05643299999997 -24.230526 -36.24987
427.600409 -40.546757 -39.868797
408.542328 -40.546757 -30.564842
402.225288 -24.230526 -24.237724
396.50363500000003 -29.79215 -16.684223
401.532089 -35.296378999999995 -24.175278
391.999954 -29.79215 0.0
392.812767 -35.296378999999995 -8.471991000000001
393.630676 -24.230526 -8.493876
395.9226 -40.546757 -16.514191
391.369995 -40.546757 0.0
393.630676 -24.230526 8.493876
396.50363500000003 -29.79215 16.684223
392.812767 -35.296378999999995 8.471991000000001
408.98776599999997 -29.79215 30.879535999999998
401.532089 -35.296378999999995 24.175278
402.225288 -24.230526 24.237724
395.9226 -40.546757 16.514191
408.542328 -40.546757 30.564842
418.05643299999997 -24.230526 36.249866
427.841076 -29.79215 40.279270000000004
417.592941 -35.296378999999995 36.156479
438.643262 -35.296378999999995 42.660999
438.80568800000003 -24.230526 42.771179
427.600409 -40.546757 39.868797
460.451661 -3.25815 40.979411999999996
471.051554 -8.3334 39.3368
460.926498 -13.512787 42.322769
450.0 -8.3334 42.648422
488.962692 -8.3334 30.157010999999997
481.179346 -13.512787 35.869846
479.82437500000003 -3.25815 34.731297
471.752748 -18.807949 40.130989
490.260475 -18.807949 30.765881
450.0 -18.807949 43.509457
494.60527 -3.25815 23.222363
500.82295999999997 -8.3334 16.293846
496.631748 -13.512787 23.983639
505.101585 -8.3334 0.0
505.020756 -13.512787 8.404834
502.629726 -3.25815 8.138052
502.51577399999996 -18.807949 16.622822
506.936905 -18.807949 0.0
502.629726 -3.25815 -8.138052
500.82295999999997 -8.3334 -16.293846
505.020756 -13.512787 -8.404834
488.962692 -8.3334 -30.157010999999997
496.631748 -13.512787 -23.983639
494.60527 -3.25815 -23.222363
502.51577399999996 -18.807949 -16.622822
490.260475 -18.807949 -30.765881
479.82437500000003 -3.25815 -34.731297
471.051554 -8.3334 -39.3368
481.179346 -13.512787 -35.869846
450.0 -8.3334 -42.648422
460.926498 -13.512787 -42.322769
460.451661 -3.25815 -40.979411999999996
471.752748 -18.807949 -40.130989
450.0 -18.807949 -43.509457
439.54834 -3.25815 -40.979408
428.948448 -8.3334 -39.336784
439.073503 -13.512787 -42.322753999999996
411.037308 -8.3334 -30.156990000000004
418.820654 -13.512787 -35.869816
420.17562499999997 -3.25815 -34.731285
428.247252 -18.807949 -40.130959000000004
409.739525 -18.807949 -30.765839
405.39473 -3.25815 -23.222353
399.17704000000003 -8.3334 -16.293833
403.368252 -13.512787 -23.983608
394.898415 -8.3334 0.0
394.979244 -13.512787 -8.404823
397.370274 -3.25815 -8.138048
397.48422600000004 -18.807949 -16.622795
393.063095 -18.807949 0.0
397.370274 -3.25815 8.138048
399.17704000000003 -8.3334 16.293833
394.979244 -13.512787 8.404823
411.037308 -8.3334 30.156990000000004
403.368252 -13.512787 23.983608
405.39473 -3.25815 23.222353
397.48422600000004 -18.807949 16.622795
409.739525 -18.807949 30.765839
420.17562499999997 -3.25815 34.731285
428.948448 -8.3334 39.336784
418.820654 -13.512787 35.869816
439.073503 -13.512787 42.322753999999996
439.54834 -3.25815 40.979408
428.247252 -18.807949 40.130959000000004
450.0 18.356945 33.265297
457.54529 21.28566 30.339803999999997
465.939049 18.356945 30.682274
458.678969 14.931023000000001 34.752415
463.71324400000003 23.787193 26.451069
450.0 23.787193 28.677883
475.380791 23.787193 20.278357999999997
471.530893 21.28566 25.713923
474.765905 14.931023000000001 29.453745
479.500357 18.356945 23.522154
468.070564 10.937869000000001 34.5453
459.681494 6.496167 38.405021999999995
450.0 10.937869000000001 37.453545
483.44541200000003 10.937869000000001 26.483683000000003
477.626661 6.496167 32.549431
469.832449 1.7246 37.503654
486.70635200000004 1.7246 28.751654
450.0 1.7246 40.660961
482.20156099999997 21.28566 17.193096
488.48028899999997 18.356945 12.709035
487.039833 14.931023000000001 19.693649
483.106735 23.787193 10.95641
485.89389800000004 23.787193 0.0
487.994606 21.28566 6.025156
493.70327399999996 14.931023000000001 6.90145
491.71983 18.356945 -0.0
493.626221 10.937869000000001 14.309148
491.318375 6.496167 21.763506
497.298981 10.937869000000001 -0.0
498.751522 6.496167 7.626810000000001
497.879791 1.7246 15.534531
501.910645 1.7246 0.0
487.994606 21.28566 -6.025156
488.48028899999997 18.356945 -12.709035
493.70327399999996 14.931023000000001 -6.90145
483.106735 23.787193 -10.95641
475.380793 23.787193 -20.278357999999997
482.20156099999997 21.28566 -17.193096
487.039833 14.931023000000001 -19.693649
479.500357 18.356945 -23.522154
493.626221 10.937869000000001 -14.309149
498.751522 6.496167 -7.626810000000001
483.44541200000003 10.937869000000001 -26.483683000000003
491.318375 6.496167 -21.763506
497.879791 1.7246 -15.534531
486.70635200000004 1.7246 -28.751654
471.530893 21.28566 -25.713923
465.939049 18.356945 -30.682274
474.765905 14.931023000000001 -29.453745
463.71324400000003 23.787193 -26.451069
450.0 23.787193 -28.677883
457.54529 21.28566 -30.339803999999997
458.678969 14.931023000000001 -34.752415
450.0 18.356945 -33.265297
468.070564 10.937869000000001 -34.5453
477.626661 6.496167 -32.549431
450.0 10.937869000000001 -37.453545
459.681494 6.496167 -38.405021999999995
469.832449 1.7246 -37.503654
450.0 1.7246 -40.660961
442.45471 21.28566 -30.339803999999997
434.060951 18.356945 -30.682274
441.32103 14.931023000000001 -34.752415
436.28675599999997 23.787193 -26.451069
424.619209 23.787193 -20.278357999999997
428.469107 21.28566 -25.713923
425.234095 14.931023000000001 -29.453745
420.499643 18.356945 -23.522154
431.929436 10.937869000000001 -34.5453
440.318506 6.496167 -38.405021999999995
416.55458799999997 10.937869000000001 -26.483683000000003
422.373339 6.496167 -32.549427
430.167551 1.7246 -37.503654
413.29364799999996 1.7246 -28.75165
417.79843900000003 21.28566 -17.193096
411.51971100000003 18.356945 -12.709035
412.960167 14.931023000000001 -19.693649
416.893265 23.787193 -10.95641
414.10610199999996 23.787193 0.0
412.005394 21.28566 -6.025156
406.29672600000004 14.931023000000001 -6.90145
408.28017 18.356945 0.0
406.373779 10.937869000000001 -14.309148
408.681625 6.496167 -21.763504
402.701019 10.937869000000001 0.0
401.248478 6.496167 -7.626810000000001
402.120209 1.7246 -15.534528
398.089355 1.7246 0.0
412.005394 21.28566 6.025156
411.51971100000003 18.356945 12.709035
406.29672600000004 14.931023000000001 6.90145
416.893265 23.787193 10.95641
424.619207 23.787193 20.278357999999997
417.79843900000003 21.28566 17.193096
412.960167 14.931023000000001 19.693649
420.499643 18.356945 23.522154
406.373779 10.937869000000001 14.309149
401.248478 6.496167 7.626810000000001
416.55458799999997 10.937869000000001 26.483683000000003
408.681625 6.496167 21.763504
402.120209 1.7246 15.534528
413.29364799999996 1.7246 28.75165
428.469107 21.28566 25.713923
434.060951 18.356945 30.682274
425.234095 14.931023000000001 29.453745
436.28675599999997 23.787193 26.451069
442.45471 21.28566 30.339803999999997
441.32103 14.931023000000001 34.752415
431.929436 10.937869000000001 34.5453
422.373339 6.496167 32.549427
440.318506 6.496167 38.405021999999995
430.167551 1.7246 37.503654
453.43976 36.806422999999995 2.7482729999999997
454.473392 36.422115000000005 5.891754
452.05117 36.422115000000005 6.693364
450.0 36.806422999999995 3.886635
454.381708 35.988304 8.451794999999999
457.818311 36.036568 6.246608999999999
450.0 36.036568 8.834005
454.864547 36.806422999999995 0.0
458.377477 36.422115000000005 1.638829
457.37417 36.422115000000005 3.574118
460.57835 35.988304 3.500863
461.056734 36.036568 0.0
453.43976 36.806422999999995 -2.7482729999999997
457.37417 36.422115000000005 -3.574118
458.377477 36.422115000000005 -1.638829
460.57835 35.988304 -3.500863
457.818311 36.036568 -6.246608999999999
450.0 36.806422999999995 -3.886635
452.05117 36.422115000000005 -6.693364
454.473392 36.422115000000005 -5.891754
454.381708 35.988304 -8.451794999999999
450.0 36.036568 -8.834005
446.56024 36.806422999999995 -2.7482729999999997
445.526608 36.422115000000005 -5.891754
447.94883 36.422115000000005 -6.693364
445.618292 35.988304 -8.451794999999999
442.181689 36.036568 -6.246608999999999
445.135453 36.806422999999995 0.0
441.622523 36.422115000000005 -1.638829
442.62583 36.422115000000005 -3.574118
439.42165 35.988304 -3.500863
438.943266 36.036568 0.0
446.56024 36.806422999999995 2.7482729999999997
442.62583 36.422115000000005 3.574118
441.622523 36.422115000000005 1.638829
439.42165 35.988304 3.500863
442.181689 36.036568 6.246608999999999
447.94883 36.422115000000005 6.693364
445.526608 36.422115000000005 5.891754
445.618292 35.988304 8.451794999999999
457.35862199999997 34.0056 14.193874
467.765266 34.0056 5.879311
467.765266 34.0056 -5.879311
457.35862199999997 34.0056 -14.193875
442.64137800000003 34.0056 -14.193874
432.234734 34.0056 -5.879311
432.234734 34.0056 5.879311
442.64137800000003 34.0056 14.193875
460.928017 29.395264 21.078735
476.382591 29.395264 8.731112
476.382591 29.395264 -8.731112
460.928017 29.395264 -21.078735
439.071983 29.395264 -21.078735
423.617409 29.395264 -8.731112
423.617409 29.395264 8.731112
439.071983 29.395264 21.078735
472.216045 -63.903351 33.801628
503.63427 -63.903351 14.001085
503.63427 -63.903351 -14.001085
472.216045 -63.903351 -33.801628
427.783955 -63.903351 -33.801628
396.36573 -63.903351 -14.001085
396.36573 -63.903351 14.001085
427.783955 -63.903351 33.801628
471.072071 -71.860947 29.077614
500.87246700000003 -71.860947 12.044334
500.87246700000003 -71.860947 -12.044334
471.072071 -71.860947 -29.077616
428.927929 -71.860947 -29.077614
399.12753299999997 -71.860947 -12.044334
399.12753299999997 -71.860947 12.044334
428.927929 -71.860947 29.077616
468.97538 -77.901825 23.592525
495.810604 -77.901825 9.772338000000001
495.810604 -77.901825 -9.772338000000001
468.97538 -77.901825 -23.592525
431.02462 -77.901825 -23.592525
404.189396 -77.901825 -9.772338000000001
404.189396 -77.901825 9.772338000000001
431.02462 -77.901825 23.592525
466.119013 -81.19787600000001 18.922276
488.914711 -81.19787600000001 7.837860000000001
488.914711 -81.19787600000001 -7.837860000000001
466.119013 -81.19787600000001 -18.922276
433.880987 -81.19787600000001 -18.922276
411.085289 -81.19787600000001 -7.837860000000001
411.085289 -81.19787600000001 7.837860000000001
433.880987 -81.19787600000001 18.922276
459.922902 -82.08017 11.623377
473.955986 -82.08017 4.814559
473.955986 -82.08017 -4.814559
459.922902 -82.08017 -11.623377
440.077098 -82.08017 -11.623377
426.044014 -82.08017 -4.814559
426.044014 -82.08017 4.814559
440.077098 -82.08017 11.623377
472.52250100000003 -53.103638000000004 37.812706
504.374146 -53.103638000000004 15.662526999999999
504.374146 -53.103638000000004 -15.662526999999999
472.52250100000003 -53.103638000000004 -37.812702
427.47749899999997 -53.103638000000004 -37.812702
395.625854 -53.103638000000004 -15.662526000000002
395.625854 -53.103638000000004 15.662526999999999
427.47749899999997 -53.103638000000004 37.812702
472.297688 -35.296378999999995 40.157585
503.831375 -35.296378999999995 16.633831
503.831375 -35.296378999999995 -16.633829000000002
472.297688 -35.296378999999995 -40.157585
427.702312 -35.296378999999995 -40.157562
396.168625 -35.296378999999995 -16.633808
396.168625 -35.296378999999995 16.633808
427.702312 -35.296378999999995 40.157562
471.45295899999996 -13.512787 39.839195000000004
501.792027 -13.512787 16.501953
501.79203 -13.512787 -16.501953
471.45295699999997 -13.512787 -39.839195000000004
428.54704100000004 -13.512787 -39.839172
398.207973 -13.512787 -16.501929999999998
398.20797 -13.512787 16.501929999999998
428.54704300000003 -13.512787 39.839172
464.814337 21.28566 28.559414
469.008533 6.496167 36.151348
485.764999 21.28566 11.829718
495.890678 6.496167 14.974389000000002
485.764999 21.28566 -11.829718
495.890678 6.496167 -14.974389000000002
464.814337 21.28566 -28.559414
469.008533 6.496167 -36.151348
435.185663 21.28566 -28.559414
430.991467 6.496167 -36.151344
414.235001 21.28566 -11.829718
404.109322 6.496167 -14.974388000000001
414.235001 21.28566 11.829718
404.109322 6.496167 14.974388000000001
435.185664 21.28566 28.559414
430.991467 6.496167 36.151344
453.64748399999996 36.289448 7.035568
458.805781 36.289448 2.914239
458.80578 36.289448 -2.914239
453.64748399999996 36.289448 -7.0355669999999995
446.35251600000004 36.289448 -7.035568
441.194219 36.289448 -2.914239
441.19422 36.289448 2.914239
446.35251600000004 36.289448 7.0355669999999995
455.357639 35.460938 10.334244
463.604925 34.008015 10.869907000000001
459.257824 32.001083 17.857172
450.0 34.008015 15.372334
462.934456 35.460938 4.280601
469.240253 34.008015 0.0
472.350367 32.001083 7.396696
462.934456 35.460938 -4.2806
463.604925 34.008015 -10.869907000000001
472.350367 32.001083 -7.396696
455.357639 35.460938 -10.334244
450.0 34.008015 -15.372334
459.257824 32.001083 -17.857172
444.642361 35.460938 -10.334244
436.395075 34.008015 -10.869907000000001
440.742176 32.001083 -17.857172
437.065544 35.460938 -4.280601
430.759747 34.008015 -0.0
427.649633 32.001083 -7.396696
437.065544 35.460938 4.2806
436.395075 34.008015 10.869907000000001
427.649633 32.001083 7.396696
444.642361 35.460938 10.334244
440.742176 32.001083 17.857172
470.225826 29.395264 16.159729000000002
462.68296599999996 25.931572 24.463791
450.0 29.395264 22.853271
478.603664 29.395264 -0.0
480.619425 25.931572 10.133251
470.225826 29.395264 -16.159729000000002
480.619425 25.931572 -10.133251
450.0 29.395264 -22.853271
462.68296599999996 25.931572 -24.463791
429.774174 29.395264 -16.159729000000002
437.31703400000004 25.931572 -24.463791
421.396336 29.395264 0.0
419.380575 25.931572 -10.133251
429.774174 29.395264 16.159729000000002
419.380575 25.931572 10.133251
437.31703400000004 25.931572 24.463791
472.446121 -59.048331999999995 35.823395
491.117958 -63.903351 25.913529999999998
471.775009 -68.076385 31.610478999999998
450.0 -63.903355000000005 36.647282000000004
504.189743 -59.048331999999995 14.838531
508.149567 -63.903351 0.0
502.569504 -68.076385 13.093481
504.189743 -59.048331999999995 -14.838531
491.117958 -63.903351 -25.913529999999998
502.569504 -68.076385 -13.093481
472.446121 -59.048331999999995 -35.823395
450.0 -63.903351 -36.647282000000004
471.775009 -68.076385 -31.610478999999998
427.553879 -59.048331999999995 -35.823395
408.882042 -63.903351 -25.913529999999998
428.224991 -68.076385 -31.610478999999998
395.810257 -59.048331999999995 -14.838531
391.850433 -63.903351 -0.0
397.430496 -68.076385 -13.093481
395.810257 -59.048331999999995 14.838531
408.882042 -63.903351 25.913529999999998
397.430496 -68.076385 13.093481
427.553879 -59.048331999999995 35.823395
428.224991 -68.076385 31.610478999999998
489.00066400000003 -71.860947 22.291930999999998
470.127487 -75.180328 26.339046000000003
450.0 -71.860947 31.525576
505.155251 -71.860947 0.0
498.592049 -75.180328 10.909983
489.00066400000003 -71.860947 -22.291930999999998
498.592049 -75.180328 -10.909983
450.0 -71.860947 -31.525576
470.127487 -75.180328 -26.339046000000003
410.99933599999997 -71.860947 -22.291930999999998
429.872513 -75.180328 -26.339046000000003
394.844749 -71.860947 -0.0
401.407951 -75.180328 -10.909983
410.99933599999997 -71.860947 22.291930999999998
401.407951 -75.180328 10.909983
429.872513 -75.180328 26.339046000000003
485.120056 -77.901825 18.086868
467.661812 -79.927132 21.097967
450.0 -77.901825 25.578707
499.667244 -77.901825 0.0
492.639362 -79.927132 8.73906
485.120056 -77.901825 -18.086868
492.639362 -79.927132 -8.73906
450.0 -77.901825 -25.578707
467.661812 -79.927132 -21.097967
414.879944 -77.901825 -18.086868
432.338188 -79.927132 -21.097967
400.332756 -77.901825 0.0
407.360638 -79.927132 -8.73906
414.879944 -77.901825 18.086868
407.360638 -79.927132 8.73906
432.338188 -79.927132 21.097967
479.792828 -81.19787600000001 14.486794
463.584215 -81.860809 15.91213
450.0 -81.19787600000001 20.487427
492.13338899999997 -81.19787600000001 0.0
482.795166 -81.860809 6.591017999999999
479.792828 -81.19787600000001 -14.486794
482.795166 -81.860809 -6.591017999999999
450.0 -81.19787600000001 -20.487427
463.584215 -81.860809 -15.91213
420.207172 -81.19787600000001 -14.486794
436.415785 -81.860809 -15.91213
407.86661100000003 -81.19787600000001 -0.0
417.204834 -81.860809 -6.591017999999999
420.207172 -81.19787600000001 14.486794
417.204834 -81.860809 6.591017999999999
436.415785 -81.860809 15.91213
465.75524 -82.100922 7.644392999999999
450.0 -82.100922 10.810808
472.281258 -82.100922 -0.0
465.755241 -82.100922 -7.644392999999999
450.0 -82.100922 -10.810808
434.24476 -82.100922 -7.644392999999999
427.718742 -82.100922 0.0
434.244759 -82.100922 7.644392999999999
491.685158 -53.103638000000004 28.988564
450.0 -53.103638000000004 40.996037
472.469154 -45.34684 39.385612
508.951733 -53.103638000000004 0.0
504.245346 -45.34684 16.314053
491.685158 -53.103638000000004 -28.988564
504.245346 -45.34684 -16.314053
450.0 -53.103638000000004 -40.996037
472.469154 -45.34684 -39.385616
408.314842 -53.103638000000004 -28.988559999999996
427.530846 -45.34684 -39.385605
391.048267 -53.103638000000004 0.0
395.754654 -45.34684 -16.314045
408.314842 -53.103638000000004 28.988561999999998
395.754654 -45.34684 16.314045
427.530846 -45.34684 39.385605
471.978783 -24.230526 40.261314
491.26906199999996 -35.296378999999995 30.786259
450.0 -35.296378999999995 43.538307
503.061462 -24.230526 16.676807
508.363266 -35.296378999999995 -0.0
503.061462 -24.230526 -16.676807
491.26906199999996 -35.296378999999995 -30.786259
471.978783 -24.230526 -40.261314
450.0 -35.296378999999995 -43.538307
428.021217 -24.230526 -40.261284
408.73093800000004 -35.296378999999995 -30.786226
396.938538 -24.230526 -16.676776999999998
391.636734 -35.296378999999995 -0.0
396.938538 -24.230526 16.676776999999998
408.73093800000004 -35.296378999999995 30.786226
428.021217 -24.230526 40.261284
470.520672 -3.25815 38.574661
489.70562 -13.512787 30.542175
450.0 -13.512787 43.193108
499.541302 -3.25815 15.978155
506.15222900000003 -13.512787 0.0
499.541302 -3.25815 -15.978155
489.70562 -13.512787 -30.542175
470.52067 -3.25815 -38.574661
450.0 -13.512787 -43.193108
429.47933 -3.25815 -38.574653999999995
410.29438 -13.512787 -30.542140999999997
400.458698 -3.25815 -15.978148000000001
393.84777099999997 -13.512787 -0.0
400.458698 -3.25815 15.978148000000001
410.29438 -13.512787 30.542143
429.47933 -3.25815 38.574653999999995
450.0 21.28566 30.963721999999997
477.418716 21.28566 21.894695000000002
467.040188 14.931023000000001 32.713089000000004
485.181427 6.496167 27.71493
450.0 6.496167 39.194801
488.77595099999996 21.28566 0.0
491.138672 14.931023000000001 13.550223999999998
499.754074 6.496167 0.0
477.418716 21.28566 -21.894695000000002
491.13867600000003 14.931023000000001 -13.550223999999998
485.181427 6.496167 -27.71493
450.0 21.28566 -30.963721999999997
467.040188 14.931023000000001 -32.713089000000004
450.0 6.496167 -39.194801
422.581284 21.28566 -21.894695000000002
432.959812 14.931023000000001 -32.713089000000004
414.818573 6.496167 -27.714928000000004
411.22404900000004 21.28566 0.0
408.861328 14.931023000000001 -13.550223999999998
400.245926 6.496167 0.0
422.581284 21.28566 21.894695000000002
408.86132399999997 14.931023000000001 13.550223999999998
414.818573 6.496167 27.714928000000004
432.959812 14.931023000000001 32.713089000000004
455.744548 36.473999 4.589734
450.0 36.473999 6.49084
458.12399800000003 36.473999 0.0
455.744548 36.473999 -4.589734
450.0 36.473999 -6.49084
444.255452 36.473999 -4.589734
441.87600199999997 36.473999 -0.0
444.255452 36.473999 4.589734
450.0 37.103241 0.0
450.0 35.485069 11.039583
459.770308 35.485069 7.806192
463.817274 35.485069 0.0
459.770309 35.485069 -7.806192
450.0 35.485069 -11.039583
440.229692 35.485069 -7.806192
436.182726 35.485069 0.0
440.229691 35.485069 7.806192
450.0 32.001083 19.360498
467.13459 32.001083 13.689962
474.231972 32.001083 0.0
467.13459 32.001083 -13.689962
450.0 32.001083 -19.360498
432.86541 32.001083 -13.689962
425.768028 32.001083 -0.0
432.86541 32.001083 13.689962
450.0 25.931572 26.523304
473.47393 25.931572 18.754837
483.197189 25.931572 0.0
473.47393 25.931572 -18.754837
450.0 25.931572 -26.523304
426.52607 25.931572 -18.754837
416.802811 25.931572 0.0
426.52607 25.931572 18.754837
450.0 -59.048331999999995 38.839252
491.543793 -59.048331999999995 27.463493
508.751808 -59.048331999999995 0.0
491.543793 -59.048331999999995 -27.463490999999998
450.0 -59.048331999999995 -38.839252
408.456207 -59.048331999999995 -27.463493
391.248192 -59.048331999999995 -0.0
408.456207 -59.048331999999995 27.463490999999998
450.0 -68.076385 34.271671000000005
490.301674 -68.076378 24.233715
506.995155 -68.076378 0.0
490.301674 -68.076378 -24.233715
450.0 -68.076378 -34.271671000000005
409.698326 -68.076378 -24.233715
393.004845 -68.076378 -0.0
409.698326 -68.076378 24.233715
450.0 -75.180328 28.55645
487.252407 -75.180328 20.192446
502.682854 -75.180328 -0.0
487.252407 -75.180328 -20.192448000000002
450.0 -75.180328 -28.55645
412.747593 -75.180328 -20.192446
397.317146 -75.180328 0.0
412.747593 -75.180328 20.192448000000002
450.0 -79.927132 22.874142000000003
482.688869 -79.927132 16.174454
496.229019 -79.927132 0.0
482.688873 -79.927132 -16.174452
450.0 -79.927132 -22.874142000000003
417.311131 -79.927132 -16.174454
403.770981 -79.927132 0.0
417.311127 -79.927132 16.174452
450.0 -81.860809 16.973164
474.736004 -81.860809 12.001835
484.98196 -81.860809 0.0
474.736004 -81.860809 -12.001835
450.0 -81.860809 -16.973164
425.263996 -81.860809 -12.001835
415.01804 -81.860809 0.0
425.263996 -81.860809 12.001835
450.0 -82.127602 0.0
450.0 -45.34684 42.701363
491.586418 -45.34684 30.194418
508.812092 -45.34684 0.0
491.586418 -45.34684 -30.194418
450.0 -45.34684 -42.701363
408.413582 -45.34684 -30.194407
391.187908 -45.34684 0.0
408.413582 -45.34684 30.194407
450.0 -24.230526 43.650749
490.678825 -24.230526 30.865790999999998
507.528534 -24.230526 0.0
490.678825 -24.230526 -30.865793
450.0 -24.230526 -43.650749
409.321175 -24.230526 -30.865747
392.471466 -24.230526 0.0
409.321175 -24.230526 30.865748999999997
450.0 -3.25815 41.822132
487.980125 -3.25815 29.572725
503.712032 -3.25815 0.0
487.980125 -3.25815 -29.572725
450.0 -3.25815 -41.822132
412.019875 -3.25815 -29.572715999999996
396.287968 -3.25815 0.0
412.019875 -3.25815 29.572715999999996
450.0 14.931023000000001 35.467075
481.538372 14.931023000000001 25.079048
494.602013 14.931023000000001 -0.0
481.53837 14.931023000000001 -25.079048
450.0 14.931023000000001 -35.467075
418.461628 14.931023000000001 -25.079048
405.397987 14.931023000000001 0.0
418.46163 14.931023000000001 25.079048
467.90083300000003 6.844633999999999 40.18047
467.5263 6.851433 39.529167
467.618067 4.973267 39.830334
467.99260100000004 4.966467 40.481636
468.482775 7.662675 39.965324
467.86424999999997 7.673875 38.889725
468.115326 4.21315 39.396202
468.73385 4.20195 40.471802000000004
469.530951 8.022475 39.399223
468.80762500000003 8.035525 38.14135
469.26210000000003 3.2788 38.772822999999995
469.98542399999997 3.26575 40.030701
471.167875 8.203625 38.49015
470.364325 8.21815 37.092751
470.93825 2.51595 37.832474
471.7418 2.501425 39.229874
473.54314999999997 8.096375 37.153652
472.698299 8.11165 35.684475
473.30832499999997 2.050875 36.470698999999996
474.15317500000003 2.0356 37.939877
478.4261 7.796925 34.332951
477.5721 7.81235 32.8479
478.18874900000003 1.68595 33.642651
479.042749 1.670525 35.127701
483.222126 7.430275 31.552675
482.379349 7.445525 30.087124
482.98789999999997 1.39965 30.871426
483.830673 1.3844 32.336975
485.466049 6.945975 30.266899
484.666473 6.960425 28.87645
485.22592499999996 1.4023 29.597475
486.02550099999996 1.38785 30.987925
487.181202 6.366275 29.269325
486.461449 6.379275 28.0177
486.945351 1.57165 28.641375
487.6651 1.55865 29.893
488.152451 5.92605 28.656799
487.475777 5.94135 27.621975
487.88439900000003 1.8819 28.1486
488.56107299999996 1.8666 29.183424
488.36747 5.158233999999999 28.392433
487.91317000000004 5.170534 27.791601
488.158436 2.734167 28.107668
488.612736 2.721867 28.7085
432.09916699999997 6.844633999999999 40.18047
432.4737 6.851433 39.529167
432.381933 4.973267 39.830334
432.00739899999996 4.966467 40.481636
431.517225 7.662675 39.965324
432.13575000000003 7.673875 38.889725
431.884674 4.21315 39.396202
431.26615 4.20195 40.471802000000004
430.469049 8.022475 39.399223
431.19237499999997 8.035525 38.14135
430.73789999999997 3.2788 38.772822999999995
430.01457600000003 3.26575 40.030701
428.832125 8.203625 38.49015
429.635675 8.21815 37.092751
429.06175 2.51595 37.832474
428.2582 2.501425 39.229874
426.45685000000003 8.096375 37.153652
427.301701 8.11165 35.684475
426.69167500000003 2.050875 36.470698999999996
425.84682499999997 2.0356 37.939877
421.5739 7.796925 34.332951
422.4279 7.81235 32.8479
421.81125099999997 1.68595 33.642651
420.957251 1.670525 35.127701
416.777874 7.430275 31.552675
417.620651 7.445525 30.087124
417.01210000000003 1.39965 30.871426
416.169327 1.3844 32.336975
414.533951 6.945975 30.266899
415.333527 6.960425 28.87645
414.77407500000004 1.4023 29.597475
413.97449900000004 1.38785 30.987925
412.818798 6.366275 29.269325
413.538551 6.379275 28.0177
413.054649 1.57165 28.641375
412.3349 1.55865 29.893
411.847549 5.92605 28.656799
412.524223 5.94135 27.621975
412.11560099999997 1.8819 28.1486
411.43892700000004 1.8666 29.183424
411.63253 5.158233999999999 28.392433
412.08682999999996 5.170534 27.791601
411.841564 2.734167 28.107668
411.387264 2.721867 28.7085
467.71110899999996 7.194617 39.790684000000006
468.090677 7.394877 40.143947999999995
467.97551 5.681075 40.46545
467.507341 5.689575 39.651325
