-22.633236 0.751084 38.098938
-25.930973 4.935083 36.843132
-24.830921 9.529112 35.137856
-24.653404 4.958146 34.621510
-25.753414 0.364122 36.326782
-31.940052 4.526133 33.365570
-30.840668 9.117398 31.661335
-30.663261 4.549223 31.145308
-31.762604 -0.042005 32.849541
-34.887878 4.313550 31.618961
-33.826176 8.715294 29.971634
-33.648335 4.335975 29.463425
-34.714512 -0.110219 31.116520
-36.856712 4.110997 30.383358
-35.909622 7.840903 28.904884
-35.711262 4.131679 28.391443
-36.689720 0.090572 29.910297
-38.152847 4.008236 29.472359
-37.313469 7.177479 28.200138
-37.125263 4.027961 27.738640
-37.985176 0.504062 29.065863
-38.681889 3.973653 28.888916
-37.945332 6.345141 27.983862
-37.775082 3.997072 27.637157
-38.451134 1.320571 28.635693
-38.243172 3.991688 28.253143
23.345501 -12.871900 39.577801
23.322001 -9.182200 39.519600
24.681400 -9.501200 38.976200
25.809799 -10.403000 38.536900
26.512199 -11.731700 38.277500
26.666901 -13.257500 38.243000
26.247400 -14.716700 38.439301
25.326099 -15.856900 38.832401
24.062401 -16.480900 39.354500
22.674700 -16.480900 39.915100
21.402901 -15.856900 40.417500
20.467100 -14.716700 40.774700
20.028999 -13.257500 40.924900
20.164301 -11.731700 40.842201
20.849701 -10.403000 40.540901
21.966600 -9.501200 40.073101
23.651600 -9.166400 40.335602
25.011101 -9.485400 39.792198
26.139500 -10.387200 39.352798
26.841801 -11.715900 39.093498
26.996599 -13.241800 39.058899
26.577101 -14.701000 39.255199
25.655800 -15.841200 39.648399
24.392000 -16.465200 40.170502
23.004299 -16.465200 40.731098
21.732599 -15.841200 41.233501
20.796801 -14.701000 41.590698
20.358601 -13.241800 41.740898
20.493999 -11.715900 41.658199
21.179300 -10.387200 41.356899
22.296301 -9.485400 40.889000
23.675200 -12.856100 40.393799
-23.345501 -12.871900 39.577801
-23.322001 -9.182200 39.519600
-24.681400 -9.501200 38.976200
-25.809799 -10.403000 38.536900
-26.512199 -11.731700 38.277500
-26.666901 -13.257500 38.243000
-26.247400 -14.716700 38.439301
-25.326099 -15.856900 38.832401
-24.062401 -16.480900 39.354500
-22.674700 -16.480900 39.915100
-21.402901 -15.856900 40.417500
-20.467100 -14.716700 40.774700
-20.028999 -13.257500 40.924900
-20.164301 -11.731700 40.842201
-20.849701 -10.403000 40.540901
-21.966600 -9.501200 40.073101
-23.651600 -9.166400 40.335602
-25.011101 -9.485400 39.792198
-26.139500 -10.387200 39.352798
-26.841801 -11.715900 39.093498
-26.996599 -13.241800 39.058899
-26.577101 -14.701000 39.255199
-25.655800 -15.841200 39.648399
-24.392000 -16.465200 40.170502
-23.004299 -16.465200 40.731098
-21.732599 -15.841200 41.233501
-20.796801 -14.701000 41.590698
-20.358601 -13.241800 41.740898
-20.493999 -11.715900 41.658199
-21.179300 -10.387200 41.356899
-22.296301 -9.485400 40.889000
-23.675200 -12.856100 40.393799
55.571854 -91.367157 28.976583
51.624805 -92.161591 29.132057
51.499611 -90.495331 29.538080
56.951107 -92.972099 28.100597
55.164612 -94.760048 27.210377
52.967186 -93.723625 28.279490
60.027077 -93.468437 26.808994
61.140793 -95.042496 24.847383
58.158356 -95.243118 25.953304
62.997906 -92.565331 25.858349
66.052582 -92.843361 23.427212
64.032204 -94.163528 23.922153
64.123314 -90.791840 25.805523
67.022713 -89.450958 23.781797
67.147903 -91.117279 23.375799
62.744102 -89.186905 26.681509
63.482990 -86.852570 25.703493
65.680367 -87.888916 24.634363
59.668152 -88.690659 27.973150
57.506805 -86.570267 28.066553
60.489265 -86.369591 26.960604
56.697289 -89.593765 28.923798
52.594955 -88.769348 29.486704
54.615356 -87.449234 28.991787
46.579025 -89.736069 29.116478
46.771461 -92.297493 28.492346
41.332794 -92.111343 26.818890
41.075874 -88.691399 27.652191
48.715542 -94.559700 27.257629
52.093445 -96.152870 25.614182
48.414631 -97.231102 22.991253
43.904587 -95.104004 25.185509
56.429115 -96.852448 23.793636
61.013760 -96.544037 22.093607
60.271500 -97.744720 18.313053
54.150261 -98.156525 20.582869
65.201233 -95.271095 20.753662
68.306976 -93.241737 19.992847
69.957748 -93.351303 15.524666
65.811081 -96.060783 16.540457
69.893288 -90.741989 19.918407
69.700859 -88.180527 20.542519
71.799377 -86.624512 16.259508
72.056290 -90.044456 15.426211
67.756821 -85.918320 21.777218
64.378967 -84.325211 23.420662
64.717621 -81.504791 20.087074
69.227615 -83.631874 17.892860
60.043316 -83.625717 25.241240
55.458641 -83.934189 26.941320
52.860733 -80.991226 24.765350
58.982002 -80.579407 22.495474
51.271130 -85.207115 28.281282
48.165356 -87.236404 29.042072
43.174419 -85.384583 27.553751
47.321117 -82.675156 26.537979
35.542336 -87.422546 25.154991
35.855400 -91.589706 24.139648
30.846210 -90.763908 20.482244
30.513084 -86.013451 21.630520
38.989090 -95.236206 22.149429
44.484486 -97.828003 19.475792
40.588684 -97.864670 15.204319
34.377110 -94.917053 18.230247
51.473225 -98.955574 16.541222
58.931824 -98.453781 13.775476
56.950798 -98.559067 8.751519
48.499416 -99.140976 11.882589
65.681671 -96.401939 11.615591
70.734283 -93.100533 10.377877
70.347778 -92.440491 4.903891
64.607338 -96.210953 6.305901
73.291306 -89.071243 10.257916
72.978271 -84.904129 11.273267
72.932007 -83.093086 5.915304
73.265076 -87.843475 4.767015
69.844627 -81.257660 13.263462
64.349274 -78.665840 15.937056
63.189651 -75.992317 11.193219
69.401184 -78.939964 8.167303
57.360554 -77.538246 18.871624
49.901939 -78.040016 21.637405
46.827568 -75.297791 17.645988
55.278954 -74.715950 14.514933
43.152039 -80.091843 23.797314
38.099369 -83.393227 25.035027
33.430412 -81.416367 21.493628
39.170956 -77.645882 20.091606
26.505280 -84.570755 17.080292
26.772459 -89.710037 15.873957
23.750530 -88.410828 10.457373
23.610691 -83.115456 11.648163
30.430010 -94.188400 13.503360
36.942272 -97.350006 10.315659
33.691498 -96.221809 4.950519
27.283260 -93.003822 8.110250
45.280205 -98.695221 6.814535
54.222744 -98.027077 3.512723
50.885334 -96.811745 -1.800339
41.962608 -97.556259 1.477449
62.356827 -95.451202 0.932004
68.491249 -91.344849 -0.549676
65.260292 -89.835243 -5.840566
59.049774 -94.105988 -4.364869
71.656677 -86.356834 -0.698209
71.389557 -81.217621 0.508146
68.395676 -79.379013 -4.803445
68.535477 -84.674324 -5.994258
67.732071 -76.739273 2.878764
61.219849 -73.577652 6.066476
58.454758 -71.568039 0.703440
64.862984 -74.786041 -2.456301
52.881943 -72.232346 9.567575
43.939400 -72.900391 12.869343
41.260895 -70.977921 7.454232
50.183640 -70.233513 4.176489
35.805252 -75.476234 15.450041
29.670738 -79.582649 16.931736
26.885870 -77.954460 11.494450
33.096416 -73.683655 10.018741
21.495695 -81.582962 5.620330
21.545938 -86.755661 4.490375
20.132343 -84.805748 -1.679983
20.106440 -80.023422 -0.643197
24.846436 -91.228638 2.258478
30.913822 -94.346817 -0.748507
28.711670 -91.814758 -6.490088
23.147964 -88.937912 -3.728970
38.789310 -95.617455 -4.055447
47.319572 -94.854462 -7.178050
43.786560 -92.267792 -12.395131
35.944263 -92.981689 -9.527059
55.156746 -92.178444 -9.622873
61.153114 -87.981323 -11.031877
56.526455 -85.899483 -15.936007
50.999382 -89.785904 -14.641085
64.361107 -82.926285 -11.182425
64.310913 -77.753616 -10.052473
59.468575 -76.440369 -15.038558
59.494408 -81.222672 -16.075298
61.010445 -73.280678 -7.820567
54.943058 -70.162506 -4.813564
50.889305 -69.431435 -10.228428
56.453003 -72.308250 -12.989578
47.067535 -68.891815 -1.506635
38.537220 -69.654724 1.615937
35.814278 -68.978302 -4.323394
43.656654 -68.264481 -7.191448
30.700016 -72.330704 4.060751
24.703657 -76.527870 5.469772
23.074339 -75.346588 -0.782480
28.601404 -71.460159 -2.077433
19.668833 -78.601776 -6.708599
19.691544 -82.794075 -7.617486
20.163467 -80.900185 -12.963284
20.144600 -77.416557 -12.208037
22.335123 -86.416428 -9.413686
27.212425 -88.938354 -11.834146
26.413034 -86.005821 -16.467136
22.360182 -83.910210 -14.455844
33.552719 -89.961327 -14.496422
40.427483 -89.335526 -17.010641
37.394218 -86.335861 -20.768579
31.681568 -86.855873 -18.679371
46.750420 -87.159836 -18.979494
51.595566 -83.752899 -20.114651
46.674427 -81.696930 -23.347891
42.648315 -84.527954 -22.404617
54.197334 -79.653076 -20.236763
54.174690 -75.460793 -19.327938
48.817520 -74.806549 -22.694160
48.836365 -78.290161 -23.449360
51.531174 -71.838470 -17.531752
46.653900 -69.316574 -15.111251
42.568069 -69.700935 -19.190275
46.620865 -71.796547 -21.201605
40.313564 -68.293602 -12.448953
33.438705 -68.919357 -9.934743
31.586809 -69.370895 -14.888811
37.299530 -68.850891 -16.978018
27.115709 -71.095016 -7.965876
22.270557 -74.501953 -6.830688
22.306532 -74.009789 -12.309483
26.332657 -71.178787 -13.252768
21.231272 -76.499954 -16.839657
21.246166 -79.250168 -17.435888
22.760189 -77.900520 -20.906116
22.749172 -75.866928 -20.465263
22.980412 -81.626488 -18.614204
26.180023 -83.280899 -20.202049
26.420340 -80.897247 -22.959564
24.054443 -79.673935 -21.785469
30.339363 -83.951988 -21.948534
34.849304 -83.541451 -23.597897
32.859154 -81.094498 -25.482527
29.524391 -81.398064 -24.262941
38.997238 -82.114166 -24.889496
42.175728 -79.879166 -25.634182
38.304951 -78.376724 -26.997066
35.954689 -80.029343 -26.446428
43.882496 -77.189644 -25.714287
43.867599 -74.439453 -25.118080
39.567673 -74.336014 -26.616003
39.578690 -76.369576 -27.056850
42.133396 -72.063148 -23.939756
38.933853 -70.408722 -22.351879
35.907600 -71.339294 -24.562510
38.273449 -72.562607 -25.736635
34.774525 -69.737648 -20.605379
30.264532 -70.148193 -18.956024
29.468758 -71.142052 -22.039558
32.803558 -70.838478 -23.259125
26.116554 -71.575462 -17.664431
22.938053 -73.810432 -16.919746
24.022919 -73.859779 -20.525040
26.373192 -72.207191 -21.075672
24.641413 -75.515213 -23.110313
24.648582 -76.838127 -23.397095
26.759951 -75.726494 -24.931032
25.542263 -78.062660 -24.004274
27.081354 -78.858459 -24.768059
27.678175 -76.984657 -25.554890
29.224680 -79.204262 -25.668034
31.394032 -79.006790 -26.461409
29.880369 -77.339958 -26.479582
33.531467 -78.271309 -27.126974
35.060379 -77.196236 -27.485180
32.076515 -76.584274 -27.163427
35.939896 -75.810310 -27.526461
35.932728 -74.487411 -27.239679
32.980179 -75.160286 -27.205843
35.039070 -73.262901 -26.632481
33.500004 -72.467102 -25.868675
32.061974 -73.902138 -26.581966
31.356682 -72.121300 -24.968697
29.187305 -72.318779 -24.175343
29.859781 -73.546837 -25.657274
27.049847 -73.054237 -23.509794
25.520927 -74.129288 -23.151594
27.663616 -74.302505 -24.973446
-51.499611 -90.495331 29.538080
-51.624805 -92.161591 29.132057
-55.571854 -91.367157 28.976583
-52.967186 -93.723625 28.279490
-55.164612 -94.760048 27.210377
-56.951107 -92.972099 28.100597
-58.158356 -95.243118 25.953304
-61.140793 -95.042496 24.847383
-60.027077 -93.468437 26.808994
-64.032204 -94.163528 23.922153
-66.052582 -92.843361 23.427212
-62.997906 -92.565331 25.858349
-67.147903 -91.117279 23.375799
-67.022713 -89.450958 23.781797
-64.123314 -90.791840 25.805523
-65.680367 -87.888916 24.634363
-63.482990 -86.852570 25.703493
-62.744102 -89.186905 26.681509
-60.489265 -86.369591 26.960604
-57.506805 -86.570267 28.066553
-59.668152 -88.690659 27.973150
-54.615356 -87.449234 28.991787
-52.594955 -88.769348 29.486704
-56.697289 -89.593765 28.923798
-41.075874 -88.691399 27.652191
-41.332794 -92.111343 26.818890
-46.771461 -92.297493 28.492346
-46.579025 -89.736069 29.116478
-43.904587 -95.104004 25.185509
-48.414631 -97.231102 22.991253
-52.093445 -96.152870 25.614182
-48.715542 -94.559700 27.257629
-54.150261 -98.156525 20.582869
-60.271500 -97.744720 18.313053
-61.013760 -96.544037 22.093607
-56.429115 -96.852448 23.793636
-65.811081 -96.060783 16.540457
-69.957748 -93.351303 15.524666
-68.306976 -93.241737 19.992847
-65.201233 -95.271095 20.753662
-72.056290 -90.044456 15.426211
-71.799377 -86.624512 16.259508
-69.700859 -88.180527 20.542519
-69.893288 -90.741989 19.918407
-69.227615 -83.631874 17.892860
-64.717621 -81.504791 20.087074
-64.378967 -84.325211 23.420662
-67.756821 -85.918320 21.777218
-58.982002 -80.579407 22.495474
-52.860733 -80.991226 24.765350
-55.458641 -83.934189 26.941320
-60.043312 -83.625717 25.241240
-47.321117 -82.675156 26.537979
-43.174419 -85.384583 27.553751
-48.165356 -87.236404 29.042072
-51.271130 -85.207115 28.281282
-30.513084 -86.013451 21.630520
-30.846210 -90.763908 20.482244
-35.855400 -91.589706 24.139648
-35.542336 -87.422546 25.154991
-34.377110 -94.917053 18.230247
-40.588684 -97.864670 15.204319
-44.484486 -97.828003 19.475792
-38.989090 -95.236206 22.149429
-48.499416 -99.140976 11.882589
-56.950798 -98.559067 8.751519
-58.931824 -98.453781 13.775476
-51.473225 -98.955574 16.541222
-64.607338 -96.210953 6.305901
-70.347778 -92.440491 4.903891
-70.734283 -93.100533 10.377877
-65.681671 -96.401939 11.615591
-73.265076 -87.843475 4.767015
-72.932007 -83.093086 5.915304
-72.978271 -84.904129 11.273267
-73.291306 -89.071243 10.257916
-69.401184 -78.939964 8.167303
-63.189651 -75.992317 11.193219
-64.349274 -78.665840 15.937056
-69.844627 -81.257660 13.263462
-55.278954 -74.715950 14.514933
-46.827568 -75.297791 17.645988
-49.901939 -78.040016 21.637405
-57.360554 -77.538246 18.871624
-39.170956 -77.645882 20.091606
-33.430412 -81.416367 21.493628
-38.099369 -83.393227 25.035027
-43.152039 -80.091843 23.797314
-23.610691 -83.115456 11.648163
-23.750530 -88.410828 10.457373
-26.772459 -89.710037 15.873957
-26.505280 -84.570755 17.080292
-27.283260 -93.003822 8.110250
-33.691498 -96.221809 4.950519
-36.942272 -97.350006 10.315659
-30.430010 -94.188400 13.503360
-41.962608 -97.556259 1.477449
-50.885334 -96.811745 -1.800339
-54.222744 -98.027077 3.512723
-45.280205 -98.695221 6.814535
-59.049774 -94.105988 -4.364869
-65.260292 -89.835243 -5.840566
-68.491249 -91.344849 -0.549676
-62.356827 -95.451202 0.932004
-68.535477 -84.674324 -5.994258
-68.395676 -79.379013 -4.803445
-71.389557 -81.217621 0.508146
-71.656677 -86.356834 -0.698209
-64.862984 -74.786041 -2.456301
-58.454758 -71.568039 0.703440
-61.219849 -73.577652 6.066476
-67.732071 -76.739273 2.878764
-50.183640 -70.233513 4.176489
-41.260895 -70.977921 7.454232
-43.939400 -72.900391 12.869343
-52.881943 -72.232346 9.567575
-33.096416 -73.683655 10.018741
-26.885870 -77.954460 11.494450
-29.670738 -79.582649 16.931736
-35.805252 -75.476234 15.450041
-20.106440 -80.023422 -0.643197
-20.132343 -84.805748 -1.679983
-21.545938 -86.755661 4.490375
-21.495695 -81.582962 5.620330
-23.147964 -88.937912 -3.728970
-28.711670 -91.814758 -6.490088
-30.913822 -94.346817 -0.748507
-24.846436 -91.228638 2.258478
-35.944263 -92.981689 -9.527059
-43.786560 -92.267792 -12.395131
-47.319572 -94.854462 -7.178050
-38.789310 -95.617455 -4.055447
-50.999382 -89.785904 -14.641085
-56.526455 -85.899483 -15.936007
-61.153114 -87.981323 -11.031877
-55.156746 -92.178444 -9.622873
-59.494408 -81.222672 -16.075298
-59.468575 -76.440369 -15.038558
-64.310913 -77.753616 -10.052473
-64.361107 -82.926285 -11.182425
-56.453003 -72.308250 -12.989578
-50.889301 -69.431435 -10.228428
-54.943058 -70.162506 -4.813564
-61.010445 -73.280678 -7.820567
-43.656654 -68.264481 -7.191448
-35.814278 -68.978302 -4.323394
-38.537220 -69.654724 1.615937
-47.067535 -68.891815 -1.506635
-28.601404 -71.460159 -2.077433
-23.074339 -75.346588 -0.782480
-24.703657 -76.527870 5.469772
-30.700016 -72.330704 4.060751
-20.144600 -77.416557 -12.208037
-20.163467 -80.900185 -12.963284
-19.691544 -82.794075 -7.617486
-19.668833 -78.601776 -6.708599
-22.360182 -83.910210 -14.455844
-26.413034 -86.005821 -16.467136
-27.212425 -88.938354 -11.834146
-22.335123 -86.416428 -9.413686
-31.681568 -86.855873 -18.679371
-37.394218 -86.335861 -20.768579
-40.427483 -89.335526 -17.010641
-33.552719 -89.961327 -14.496422
-42.648315 -84.527954 -22.404617
-46.674427 -81.696930 -23.347891
-51.595566 -83.752899 -20.114651
-46.750420 -87.159836 -18.979494
-48.836365 -78.290161 -23.449360
-48.817520 -74.806549 -22.694160
-54.174690 -75.460793 -19.327938
-54.197334 -79.653076 -20.236763
-46.620865 -71.796547 -21.201605
-42.568069 -69.700935 -19.190275
-46.653900 -69.316574 -15.111251
-51.531174 -71.838470 -17.531752
-37.299530 -68.850891 -16.978018
-31.586809 -69.370895 -14.888811
-33.438705 -68.919357 -9.934743
-40.313564 -68.293602 -12.448953
-26.332657 -71.178787 -13.252768
-22.306532 -74.009789 -12.309483
-22.270557 -74.501953 -6.830688
-27.115709 -71.095016 -7.965876
-22.749172 -75.866928 -20.465263
-22.760189 -77.900520 -20.906116
-21.246166 -79.250168 -17.435888
-21.231272 -76.499954 -16.839657
-24.054443 -79.673935 -21.785469
-26.420340 -80.897247 -22.959564
-26.180023 -83.280899 -20.202049
-22.980412 -81.626488 -18.614204
-29.524391 -81.398064 -24.262941
-32.859154 -81.094498 -25.482527
-34.849304 -83.541451 -23.597897
-30.339363 -83.951988 -21.948534
-35.954689 -80.029343 -26.446428
-38.304951 -78.376724 -26.997066
-42.175728 -79.879166 -25.634182
-38.997238 -82.114166 -24.889496
-39.578690 -76.369576 -27.056850
-39.567673 -74.336014 -26.616003
-43.867599 -74.439453 -25.118080
-43.882496 -77.189644 -25.714287
-38.273449 -72.562607 -25.736635
-35.907600 -71.339294 -24.562510
-38.933853 -70.408722 -22.351879
-42.133396 -72.063148 -23.939756
-32.803558 -70.838478 -23.259125
-29.468758 -71.142044 -22.039558
-30.264532 -70.148193 -18.956024
-34.774525 -69.737648 -20.605379
-26.373192 -72.207184 -21.075674
-24.022919 -73.859779 -20.525040
-22.938053 -73.810432 -16.919746
-26.116554 -71.575462 -17.664431
-26.759951 -75.726494 -24.931032
-24.648582 -76.838127 -23.397095
-24.641413 -75.515213 -23.110313
-27.678175 -76.984657 -25.554890
-27.081354 -78.858459 -24.768059
-25.542263 -78.062660 -24.004274
-29.880369 -77.339958 -26.479582
-31.394032 -79.006790 -26.461409
-29.224680 -79.204262 -25.668034
-32.076515 -76.584274 -27.163427
-35.060379 -77.196236 -27.485180
-33.531467 -78.271309 -27.126974
-32.980179 -75.160286 -27.205843
-35.932728 -74.487411 -27.239679
-35.939896 -75.810310 -27.526461
-32.061974 -73.902138 -26.581966
-33.500004 -72.467102 -25.868675
-35.039070 -73.262901 -26.632481
-29.859781 -73.546837 -25.657274
-29.187305 -72.318771 -24.175343
-31.356682 -72.121300 -24.968697
-27.663616 -74.302505 -24.973446
-25.520927 -74.129288 -23.151594
-27.049847 -73.054237 -23.509796
56.829979 -92.054001 28.502384
53.717575 -91.889587 29.122152
53.640484 -90.863602 29.372160
56.720734 -90.599991 28.856688
49.305462 -92.268959 28.943167
51.265800 -91.339127 29.411064
52.288105 -92.957993 28.741415
52.038551 -89.636604 29.550747
49.146652 -90.155205 29.458225
58.747486 -92.958389 27.569462
56.280800 -93.935951 27.695251
54.927742 -93.297775 28.353556
53.727257 -95.485367 26.549009
53.860027 -94.357849 27.763428
56.668274 -95.023911 26.610336
50.939697 -94.170609 27.905235
61.350002 -92.783318 26.604412
60.816105 -94.247917 25.881023
58.979679 -94.371445 26.561991
61.155293 -95.818947 23.615702
59.645611 -95.291412 25.334061
62.613216 -94.623993 24.405880
57.371902 -96.073456 25.018621
63.113007 -91.631317 26.172520
64.666771 -92.642624 24.742161
63.422729 -93.455521 25.046921
67.238319 -93.074181 21.861458
65.233437 -93.592766 23.546000
66.640457 -91.992477 23.419308
64.675362 -94.748886 22.489313
63.003765 -90.177254 26.526802
65.577118 -90.060516 24.945801
65.654205 -91.086548 24.695808
68.412987 -88.859009 22.313906
67.350220 -90.257019 23.446644
66.390915 -88.670959 24.228592
68.571793 -90.972824 21.798872
61.086288 -89.272919 27.459743
63.013962 -88.014198 26.372715
64.366989 -88.652328 25.714397
63.991291 -85.642685 24.708069
64.756058 -87.238297 25.094275
62.010834 -86.605179 26.359707
66.778793 -86.957352 23.351830
58.483765 -89.448036 28.424814
58.478664 -87.702362 28.186996
60.315102 -87.578796 27.506012
56.563244 -85.309250 27.641451
58.970512 -86.304916 27.523710
56.065849 -87.005196 28.564217
60.346664 -85.054688 26.238491
54.627945 -89.307617 29.325844
55.872002 -88.494759 29.021101
50.480148 -88.053947 29.395679
53.382622 -88.003555 29.311777
53.043137 -86.379311 28.767849
46.425785 -91.031708 28.890133
43.865761 -89.245583 28.514059
47.176956 -88.455872 29.168190
47.555050 -93.488480 27.941914
44.091133 -92.245514 27.783089
38.564774 -91.893303 25.603245
40.912437 -90.421005 27.343779
42.331867 -93.694862 26.093981
41.828175 -86.990074 27.727669
38.278389 -88.081161 26.532095
50.234489 -95.463669 26.471163
46.351555 -94.875847 26.347458
54.191845 -96.618683 24.712927
50.307724 -96.741730 24.422672
46.458706 -97.600143 21.336700
45.961868 -96.296753 24.136818
51.173790 -97.865036 21.792154
41.431484 -95.229141 23.782570
58.728630 -96.834213 22.904476
55.348923 -97.555130 22.305876
63.199600 -96.012718 21.372761
60.718422 -97.193909 20.314817
59.675224 -98.172630 16.122032
57.223133 -98.113708 19.408224
63.174454 -97.057709 17.342188
52.852051 -98.631660 18.652142
66.932434 -94.340363 20.279346
65.587311 -95.713837 18.756832
69.301659 -92.025513 19.877941
69.224731 -93.337090 17.865784
70.472214 -93.275429 13.013897
68.099480 -94.807472 15.927927
71.303986 -91.745789 15.350739
65.850037 -96.295593 14.146166
70.040230 -89.443039 20.133511
71.069183 -90.430595 17.779240
68.923584 -86.992821 21.104174
70.843819 -87.430641 18.510199
72.525024 -85.777290 13.833011
72.219727 -88.314850 15.734622
70.800316 -85.041008 16.984409
72.811394 -89.589401 12.904158
66.231606 -85.011093 22.552448
68.583435 -84.800323 19.945805
62.286880 -83.862732 24.333158
64.627312 -82.934479 21.870567
64.631180 -80.070473 18.099474
67.170364 -82.439133 18.941526
61.958473 -80.870880 21.286169
69.658356 -82.441483 15.653655
57.737495 -83.640701 26.119196
59.586128 -82.121140 23.987387
53.279079 -84.468796 27.673414
54.216602 -82.482407 25.978504
51.414642 -79.497993 23.314201
55.909119 -80.622238 23.670147
49.957764 -81.678253 25.736240
58.237843 -79.038956 20.784039
49.533615 -86.134529 28.744358
49.347675 -83.962463 27.536516
45.710228 -86.339142 28.427542
40.617584 -84.395134 26.422359
45.032700 -83.928436 27.150501
45.239792 -81.375015 25.290100
35.343197 -89.530052 24.779205
32.932350 -86.728867 23.521070
36.459000 -85.349495 25.246948
37.072762 -93.519196 23.256372
33.263077 -91.210075 22.431511
28.663202 -90.260727 18.295256
30.276634 -88.416428 21.205688
32.215229 -92.962067 19.482870
31.562149 -83.648819 21.734060
28.349178 -85.289642 19.483532
41.495846 -96.689537 20.871634
36.622574 -95.130432 20.295513
47.846458 -98.600418 18.014719
42.518852 -97.915810 17.425880
38.720867 -97.675697 12.828461
37.209160 -96.570663 16.784142
44.393002 -98.740845 13.550547
32.297863 -94.601303 15.963054
55.217453 -98.903389 15.109930
50.020206 -99.126076 14.276056
62.469006 -97.616661 12.592486
58.028084 -98.583992 11.307323
55.686752 -98.374825 6.142005
52.740993 -99.076546 10.262298
60.961891 -97.600037 7.412105
46.917274 -98.998085 9.386767
68.470032 -94.874825 10.869239
65.277077 -96.375252 8.988811
72.374641 -91.144272 10.165954
70.705597 -92.823318 7.660058
69.622452 -91.948761 2.152829
67.773758 -94.466278 5.460600
72.216011 -90.208069 4.663466
63.643559 -95.904457 3.606940
73.490456 -86.963760 10.633707
73.455902 -88.489449 7.531024
71.760933 -82.974663 12.156538
73.125221 -84.008301 8.620593
72.364746 -82.161766 3.197717
73.501549 -85.440536 5.191854
71.563026 -80.894951 6.914681
72.678711 -87.132782 2.009425
67.337891 -79.804321 14.541235
69.765785 -80.087967 10.756578
60.987312 -77.893417 17.398119
63.869553 -77.302559 13.626183
62.307205 -74.746788 8.664529
66.569160 -77.286346 9.613404
59.385353 -75.116112 12.846984
68.730164 -77.821213 5.529932
53.616318 -77.590416 20.302931
56.368225 -76.092255 16.775997
46.364735 -78.877129 22.820412
48.360340 -76.634293 19.744741
45.341347 -74.047493 15.350928
51.037380 -74.780342 16.135216
42.816448 -76.256798 18.985401
54.110828 -73.424324 12.106201
40.363651 -81.618942 24.543667
41.111286 -78.843002 22.063267
35.682678 -82.394943 23.392025
31.405464 -80.473572 19.340107
36.004478 -79.390564 20.936913
37.384468 -76.517838 17.885981
26.212431 -87.172256 16.634571
24.939684 -83.848717 14.456578
27.656288 -82.007050 17.187290
28.180080 -92.082588 14.822277
25.144672 -89.098007 13.250584
22.560722 -87.634651 7.526557
23.255116 -85.798645 11.209070
25.094166 -90.847412 9.416592
24.820021 -80.465866 11.751130
22.476595 -82.362900 8.690823
33.393616 -95.965027 11.980167
28.762241 -93.661522 10.877110
40.947346 -98.280884 8.572794
35.262589 -96.870926 7.683737
32.238682 -95.385994 2.133830
30.191231 -94.816475 6.600757
37.657486 -97.156258 3.221947
25.981758 -92.198471 5.228724
49.764214 -98.606216 5.106103
43.618538 -98.219055 4.175044
58.479160 -96.971008 2.099615
52.606396 -97.508492 0.864874
49.107185 -95.929512 -4.481714
46.430637 -97.436516 -0.218229
55.150459 -95.696663 -3.204134
40.342758 -96.693497 -1.269099
65.734573 -93.548782 0.039152
60.805958 -94.851585 -1.723675
70.505669 -88.920494 -0.805218
67.016434 -90.637436 -3.211512
63.285091 -88.946968 -8.444725
62.460609 -92.124062 -5.253395
67.326141 -87.323883 -6.097236
57.147099 -93.214813 -6.996345
71.949554 -83.755371 -0.252478
70.256454 -85.531921 -3.363549
69.981972 -78.845085 1.559836
70.051514 -80.282684 -2.157532
66.467117 -78.528641 -7.433717
68.891068 -81.991173 -5.555154
67.052063 -76.942444 -3.762654
66.551208 -83.800354 -8.597996
64.768486 -74.962646 4.401965
66.433990 -75.719200 0.215964
57.214790 -72.646729 7.809334
59.933670 -72.509773 3.409349
56.789192 -70.777328 -2.040961
61.955021 -72.973389 -0.946800
54.488770 -70.633560 2.432007
63.046112 -73.964851 -5.135867
48.397934 -72.321297 11.275984
51.577736 -71.161560 6.918018
39.682961 -73.956436 14.282434
42.589867 -71.872017 10.228141
39.920631 -70.233643 4.574528
45.715603 -70.353203 5.872144
36.995754 -72.092972 8.858011
48.685097 -69.469749 1.361951
32.427452 -77.378677 16.342897
34.390255 -74.528900 12.816668
28.179712 -78.743111 14.304517
25.742691 -77.216209 8.537535
29.685562 -75.665604 10.907269
31.880688 -72.948318 7.089141
21.114038 -84.205696 5.204256
20.696230 -80.796265 2.490915
22.691904 -78.989632 5.716276
22.790401 -89.130699 3.501009
20.728903 -85.802986 1.403353
19.778980 -83.793068 -4.705105
19.745420 -82.448624 -1.024823
21.266693 -87.000328 -2.588193
21.215908 -77.624588 -0.555589
19.754560 -79.285057 -3.727778
27.594193 -92.987869 0.822176
23.895702 -90.129913 -0.745687
34.685478 -95.243881 -2.394179
29.732845 -93.143379 -3.641483
27.866222 -90.400055 -9.239312
25.666256 -90.561661 -5.047780
32.174305 -92.640381 -8.001359
22.621635 -87.688217 -6.636570
43.056835 -95.482620 -5.670630
37.317928 -94.367172 -6.826473
51.409039 -93.748039 -8.516024
45.540150 -93.622063 -9.834228
42.076454 -90.827118 -14.805641
39.866646 -92.852791 -11.010533
47.549103 -91.240799 -13.624199
34.683975 -91.500061 -12.102081
58.444252 -90.228577 -10.470767
53.100311 -91.025833 -12.189453
63.164879 -85.519592 -11.278372
58.891266 -86.958694 -13.547234
54.085587 -84.824089 -18.143408
54.028221 -87.979874 -15.420212
58.384907 -83.621490 -16.162893
48.875553 -88.487595 -16.922764
64.742790 -80.303574 -10.766353
61.997929 -82.063324 -13.693030
63.066467 -75.378601 -9.063106
61.965317 -77.056625 -12.605494
56.858948 -75.907524 -17.297445
59.855461 -78.797478 -15.693695
58.334255 -74.245804 -14.130362
56.883293 -80.415527 -18.274714
58.262695 -71.521454 -6.384255
58.798553 -72.729736 -10.456453
51.171391 -69.265427 -3.167892
52.961411 -69.716301 -7.560633
48.771782 -69.300613 -12.763213
53.934723 -70.684517 -11.670753
47.426651 -68.605812 -8.717145
54.016354 -72.012421 -15.365993
42.799984 -69.026604 0.108533
45.376282 -68.492477 -4.375642
34.447735 -70.761108 2.953901
37.153992 -69.237495 -1.367913
34.561405 -68.873474 -7.196880
39.734230 -68.393341 -5.707983
32.051701 -70.005272 -3.094329
41.953976 -68.200600 -9.900426
27.412510 -74.280594 4.908653
29.593792 -71.833694 0.987312
23.802845 -75.900856 2.345117
22.552216 -74.876480 -3.859066
25.572561 -73.266190 -1.298289
27.762245 -71.212975 -5.079743
19.352356 -80.727768 -7.043149
19.811449 -77.977600 -9.547930
20.641418 -76.498901 -6.631793
20.685947 -84.717896 -8.413651
19.832287 -81.824524 -10.381941
20.647343 -80.036812 -15.326327
19.881618 -79.183167 -12.486034
20.989779 -82.498802 -13.624861
20.952782 -75.669159 -12.144213
20.630478 -76.922668 -14.651191
24.542728 -87.839851 -10.569786
22.258085 -85.148460 -12.030162
30.247868 -89.662117 -13.158959
26.733589 -87.462616 -14.251213
26.234074 -84.600929 -18.458542
24.194620 -85.093018 -15.416511
28.935369 -86.607239 -17.567997
22.611071 -82.727585 -16.660576
36.991188 -89.848343 -15.796870
32.551559 -88.401321 -16.694159
43.725822 -88.435234 -18.088070
38.859966 -87.827080 -19.001247
36.050560 -84.895958 -22.303757
34.538795 -86.761993 -19.759987
40.135002 -85.587761 -21.663879
30.943813 -85.360817 -20.436136
49.405567 -85.576630 -19.662495
44.661999 -85.830627 -20.807901
53.224724 -81.755951 -20.313547
49.107986 -82.704361 -21.849543
44.346478 -80.749046 -24.609501
44.854630 -83.212372 -22.972164
48.028179 -80.037552 -23.513166
40.747387 -83.279800 -23.766272
54.513840 -77.527092 -19.902245
51.495399 -78.942299 -21.961594
53.180321 -73.536987 -18.531792
51.474609 -75.095390 -21.127640
46.262245 -74.589493 -24.025105
49.099358 -76.523560 -23.171387
47.991234 -73.207947 -22.032595
46.279106 -77.703613 -24.700207
49.323586 -70.415062 -16.375633
49.048870 -71.771484 -19.479429
43.618446 -68.592819 -13.786419
44.573410 -69.457336 -17.258339
40.675632 -70.025391 -20.892857
44.786461 -70.613739 -20.240921
40.045746 -69.099518 -18.089397
44.298569 -71.898743 -22.690855
36.875053 -68.406563 -11.148508
38.755417 -68.518646 -14.815369
30.140326 -69.819626 -8.857313
32.446926 -69.092865 -12.508286
30.859097 -69.730370 -17.047623
34.442272 -68.944771 -15.897401
28.845989 -70.118988 -13.993512
35.965900 -69.265503 -18.915241
24.460554 -72.678223 -7.282858
26.644833 -71.089287 -10.701620
22.198837 -74.215538 -9.659957
22.563112 -73.877243 -14.741877
24.126331 -72.494354 -12.685213
26.162216 -71.346512 -15.585108
21.023655 -77.894638 -17.059122
21.939873 -76.148132 -18.776621
21.869308 -75.120445 -16.789272
21.898516 -80.512230 -17.958176
21.952822 -78.538620 -19.294853
23.661148 -77.334236 -22.272568
22.578043 -76.901352 -20.615660
23.263144 -78.834648 -21.306198
23.241491 -74.839119 -20.440023
23.652054 -75.656052 -21.908766
24.428650 -82.560272 -19.372616
23.463203 -80.608185 -20.321058
28.171329 -83.755699 -21.071142
26.244305 -82.046188 -21.701208
26.701548 -79.834518 -23.980667
25.113653 -80.375702 -22.338425
27.911564 -81.238174 -23.613026
24.749130 -78.825005 -23.011765
32.595047 -83.877869 -22.801645
29.866722 -82.630646 -23.222242
37.013062 -82.950844 -24.304707
33.786743 -82.273804 -24.655865
32.062824 -80.005005 -26.082752
31.194897 -81.356857 -24.891911
34.463608 -80.641747 -26.009224
29.310877 -80.255508 -25.076313
40.739056 -81.075562 -25.337557
37.399223 -81.030769 -25.780733
43.244469 -78.569145 -25.764662
40.161957 -79.088120 -26.428011
36.604496 -77.745819 -27.347431
37.259453 -79.270073 -26.780317
39.081318 -77.394745 -27.091103
34.664986 -79.109612 -26.893026
44.090107 -75.794975 -25.494835
41.648399 -76.745781 -26.497776
43.215263 -73.177406 -24.595795
41.635448 -74.355331 -25.979557
37.666142 -74.380402 -27.033888
39.754871 -75.337807 -26.897442
39.059669 -73.399261 -26.224934
37.675232 -76.058571 -27.397686
40.685196 -71.129364 -23.181330
40.125107 -72.285774 -24.953341
36.942566 -69.933929 -21.482775
37.344063 -70.847755 -23.573160
34.625801 -71.880135 -25.325745
37.219322 -71.863480 -25.174646
34.411331 -70.995728 -23.918058
36.578186 -72.889648 -26.294672
32.518818 -69.811775 -19.752270
33.721657 -70.263306 -22.052113
28.100748 -70.738792 -18.249218
29.801594 -70.620155 -20.618505
29.264502 -71.709663 -23.223673
31.138094 -70.882332 -22.621147
27.859228 -71.592163 -21.521889
32.016479 -71.459145 -24.230093
24.374729 -72.614059 -17.216370
26.189075 -71.863174 -19.493649
23.426331 -73.805801 -18.846375
24.722794 -73.968796 -21.959019
25.073479 -72.969078 -20.732769
26.662313 -72.605034 -22.413418
24.453489 -76.201843 -23.156500
25.687346 -75.515129 -24.105778
25.051006 -74.812828 -23.146143
25.065304 -77.449814 -23.717789
25.691761 -76.329712 -24.282362
27.526215 -75.045189 -25.206821
27.532478 -76.199577 -25.457071
26.180576 -78.568329 -24.329912
26.497421 -77.433632 -24.829739
28.133190 -79.036095 -25.240253
27.445112 -77.923645 -25.300035
28.875500 -76.894005 -26.123560
30.322674 -79.236610 -26.069164
29.377333 -78.235390 -26.111368
32.457409 -78.642464 -26.821701
30.713104 -78.113792 -26.599888
30.768518 -76.721680 -26.815870
34.453396 -77.815254 -27.355408
32.640015 -77.450752 -27.199898
35.505016 -76.499504 -27.535721
33.581440 -76.788780 -27.420462
32.102669 -75.783562 -27.128448
36.153103 -75.136871 -27.435184
34.374329 -75.539360 -27.457678
35.490730 -73.862549 -26.964069
34.369915 -74.724792 -27.281094
32.096413 -74.629181 -26.878193
34.426056 -72.770432 -26.261742
33.564274 -73.620880 -26.733700
32.422890 -72.276276 -25.441565
32.616596 -73.130875 -26.263388
30.753401 -73.934761 -26.211689
30.283960 -72.102142 -24.522486
30.684376 -72.819130 -25.452053
28.098629 -72.669907 -23.860149
29.348591 -72.940727 -24.963549
28.860371 -74.107079 -25.519394
26.153198 -73.523468 -23.236275
27.421659 -73.603752 -24.363554
26.480232 -74.265709 -24.142994
-49.146652 -90.155205 29.458225
-51.265800 -91.339127 29.411064
-53.640484 -90.863602 29.372160
-52.038551 -89.636604 29.550747
-52.288105 -92.957993 28.741415
-53.717575 -91.889587 29.122152
-49.305462 -92.268959 28.943167
-56.720734 -90.599991 28.856688
-56.829979 -92.054001 28.502384
-50.939697 -94.170609 27.905235
-53.860027 -94.357849 27.763428
-54.927742 -93.297775 28.353556
-56.668274 -95.023911 26.610336
-56.280800 -93.935951 27.695251
-53.727257 -95.485367 26.549009
-58.747486 -92.958389 27.569462
-57.371902 -96.073456 25.018621
-59.645611 -95.291412 25.334061
-58.979679 -94.371445 26.561991
-62.613216 -94.623993 24.405880
-60.816105 -94.247917 25.881023
-61.155293 -95.818947 23.615702
-61.350002 -92.783318 26.604412
-64.675362 -94.748886 22.489313
-65.233437 -93.592766 23.546000
-63.422729 -93.455521 25.046921
-66.640457 -91.992477 23.419308
-64.666771 -92.642624 24.742161
-67.238319 -93.074181 21.861458
-63.113007 -91.631317 26.172520
-68.571793 -90.972824 21.798872
-67.350220 -90.257019 23.446644
-65.654205 -91.086548 24.695808
-66.390915 -88.670959 24.228592
-65.577118 -90.060516 24.945801
-68.412987 -88.859009 22.313906
-63.003765 -90.177254 26.526802
-66.778793 -86.957352 23.351830
-64.756058 -87.238297 25.094275
-64.366989 -88.652328 25.714397
-62.010834 -86.605179 26.359707
-63.013962 -88.014198 26.372715
-63.991287 -85.642685 24.708069
-61.086288 -89.272919 27.459743
-60.346661 -85.054688 26.238491
-58.970512 -86.304916 27.523710
-60.315102 -87.578796 27.506012
-56.065849 -87.005196 28.564217
-58.478664 -87.702362 28.186996
-56.563244 -85.309250 27.641451
-58.483765 -89.448036 28.424814
-53.043137 -86.379311 28.767849
-53.382622 -88.003555 29.311777
-55.872002 -88.494759 29.021101
-54.627945 -89.307617 29.325844
-50.480148 -88.053947 29.395679
-38.278389 -88.081161 26.532095
-40.912437 -90.421005 27.343779
-43.865761 -89.245583 28.514059
-41.828175 -86.990074 27.727669
-42.331867 -93.694862 26.093981
-44.091133 -92.245514 27.783089
-38.564774 -91.893303 25.603245
-46.425785 -91.031708 28.890133
-47.555050 -93.488480 27.941914
-47.176956 -88.455872 29.168190
-41.431484 -95.229141 23.782570
-45.961868 -96.296753 24.136818
-46.351555 -94.875847 26.347458
-51.173790 -97.865036 21.792154
-50.307724 -96.741730 24.422672
-46.458706 -97.600143 21.336700
-50.234489 -95.463669 26.471163
-54.191845 -96.618683 24.712927
-52.852051 -98.631660 18.652142
-57.223133 -98.113708 19.408224
-55.348923 -97.555130 22.305876
-63.174454 -97.057709 17.342188
-60.718422 -97.193909 20.314817
-59.675224 -98.172630 16.122032
-58.728630 -96.834213 22.904476
-63.199600 -96.012718 21.372761
-65.850037 -96.295593 14.146166
-68.099480 -94.807472 15.927927
-65.587311 -95.713837 18.756832
-71.303986 -91.745789 15.350739
-69.224731 -93.337090 17.865784
-70.472214 -93.275429 13.013897
-66.932434 -94.340363 20.279346
-69.301659 -92.025513 19.877941
-72.811394 -89.589401 12.904158
-72.219727 -88.314850 15.734622
-71.069183 -90.430595 17.779240
-70.800316 -85.041008 16.984409
-70.843819 -87.430641 18.510199
-72.525024 -85.777290 13.833011
-70.040230 -89.443039 20.133511
-68.923584 -86.992821 21.104174
-69.658356 -82.441483 15.653655
-67.170364 -82.439133 18.941526
-68.583435 -84.800323 19.945805
-61.958473 -80.870880 21.286169
-64.627312 -82.934479 21.870567
-64.631180 -80.070473 18.099474
-66.231606 -85.011093 22.552448
-62.286880 -83.862732 24.333158
-58.237843 -79.038956 20.784039
-55.909119 -80.622238 23.670147
-59.586128 -82.121140 23.987387
-49.957764 -81.678253 25.736240
-54.216602 -82.482407 25.978504
-51.414642 -79.497993 23.314201
-57.737492 -83.640701 26.119196
-53.279079 -84.468796 27.673414
-45.239792 -81.375015 25.290100
-45.032700 -83.928436 27.150501
-49.347675 -83.962463 27.536516
-45.710228 -86.339142 28.427542
-40.617584 -84.395134 26.422359
-49.533615 -86.134529 28.744358
-28.349178 -85.289642 19.483532
-30.276634 -88.416428 21.205688
-32.932350 -86.728867 23.521070
-31.562149 -83.648819 21.734060
-32.215229 -92.962067 19.482870
-33.263077 -91.210075 22.431511
-28.663202 -90.260727 18.295256
-35.343197 -89.530052 24.779205
-37.072758 -93.519196 23.256372
-36.459000 -85.349495 25.246948
-32.297863 -94.601303 15.963054
-37.209160 -96.570663 16.784142
-36.622574 -95.130432 20.295513
-44.393002 -98.740845 13.550547
-42.518852 -97.915810 17.425880
-38.720867 -97.675697 12.828461
-41.495846 -96.689537 20.871634
-47.846458 -98.600418 18.014719
-46.917274 -98.998085 9.386767
-52.740993 -99.076546 10.262298
-50.020206 -99.126076 14.276056
-60.961891 -97.600037 7.412105
-58.028084 -98.583992 11.307323
-55.686752 -98.374825 6.142005
-55.217453 -98.903389 15.109930
-62.469006 -97.616661 12.592486
-63.643559 -95.904457 3.606940
-67.773758 -94.466278 5.460600
-65.277077 -96.375252 8.988811
-72.216011 -90.208069 4.663466
-70.705597 -92.823318 7.660058
-69.622452 -91.948761 2.152829
-68.470032 -94.874825 10.869239
-72.374641 -91.144272 10.165954
-72.678711 -87.132782 2.009425
-73.501549 -85.440536 5.191854
-73.455902 -88.489449 7.531024
-71.563026 -80.894951 6.914681
-73.125221 -84.008301 8.620593
-72.364746 -82.161766 3.197717
-73.490456 -86.963760 10.633707
-71.760933 -82.974663 12.156538
-68.730164 -77.821213 5.529932
-66.569160 -77.286346 9.613404
-69.765785 -80.087967 10.756578
-59.385353 -75.116112 12.846984
-63.869553 -77.302559 13.626183
-62.307205 -74.746788 8.664529
-67.337891 -79.804321 14.541235
-60.987312 -77.893417 17.398119
-54.110828 -73.424324 12.106201
-51.037380 -74.780342 16.135216
-56.368225 -76.092255 16.775997
-42.816448 -76.256798 18.985401
-48.360340 -76.634293 19.744741
-45.341347 -74.047493 15.350928
-53.616318 -77.590416 20.302931
-46.364735 -78.877129 22.820412
-37.384468 -76.517838 17.885981
-36.004478 -79.390564 20.936913
-41.111286 -78.843002 22.063267
-35.682678 -82.394943 23.392025
-31.405464 -80.473572 19.340107
-40.363651 -81.618942 24.543667
-22.476595 -82.362900 8.690823
-23.255116 -85.798645 11.209070
-24.939684 -83.848717 14.456578
-24.820021 -80.465866 11.751130
-25.094166 -90.847412 9.416592
-25.144672 -89.098007 13.250584
-22.560722 -87.634651 7.526557
-26.212431 -87.172256 16.634571
-28.180080 -92.082588 14.822277
-27.656288 -82.007050 17.187290
-25.981758 -92.198471 5.228724
-30.191231 -94.816475 6.600757
-28.762241 -93.661522 10.877110
-37.657486 -97.156258 3.221947
-35.262589 -96.870926 7.683737
-32.238682 -95.385994 2.133830
-33.393616 -95.965027 11.980167
-40.947346 -98.280884 8.572794
-40.342758 -96.693497 -1.269099
-46.430637 -97.436516 -0.218229
-43.618538 -98.219055 4.175045
-55.150459 -95.696663 -3.204134
-52.606396 -97.508492 0.864874
-49.107185 -95.929512 -4.481714
-49.764214 -98.606216 5.106103
-58.479160 -96.971008 2.099615
-57.147099 -93.214813 -6.996345
-62.460609 -92.124062 -5.253395
-60.805958 -94.851585 -1.723675
-67.326141 -87.323883 -6.097236
-67.016434 -90.637436 -3.211512
-63.285091 -88.946968 -8.444725
-65.734573 -93.548782 0.039152
-70.505669 -88.920494 -0.805218
-66.551208 -83.800354 -8.597996
-68.891068 -81.991173 -5.555154
-70.256454 -85.531921 -3.363549
-67.052063 -76.942444 -3.762654
-70.051514 -80.282684 -2.157532
-66.467117 -78.528641 -7.433717
-71.949554 -83.755371 -0.252478
-69.981972 -78.845085 1.559836
-63.046112 -73.964851 -5.135867
-61.955021 -72.973389 -0.946800
-66.433990 -75.719200 0.215964
-54.488770 -70.633560 2.432007
-59.933670 -72.509773 3.409349
-56.789192 -70.777328 -2.040961
-64.768486 -74.962646 4.401965
-57.214790 -72.646729 7.809334
-48.685097 -69.469749 1.361951
-45.715603 -70.353203 5.872144
-51.577736 -71.161560 6.918018
-36.995754 -72.092972 8.858011
-42.589867 -71.872017 10.228141
-39.920631 -70.233643 4.574528
-48.397934 -72.321297 11.275984
-39.682961 -73.956436 14.282434
-31.880688 -72.948318 7.089141
-29.685562 -75.665604 10.907269
-34.390255 -74.528900 12.816668
-28.179712 -78.743111 14.304517
-25.742691 -77.216209 8.537535
-32.427452 -77.378677 16.342897
-19.754560 -79.285057 -3.727778
-19.745420 -82.448624 -1.024823
-20.696230 -80.796265 2.490915
-21.215908 -77.624588 -0.555589
-21.266693 -87.000328 -2.588193
-20.728903 -85.802986 1.403353
-19.778980 -83.793068 -4.705105
-21.114038 -84.205696 5.204256
-22.790401 -89.130699 3.501009
-22.691904 -78.989632 5.716276
-22.621635 -87.688217 -6.636570
-25.666256 -90.561661 -5.047780
-23.895702 -90.129913 -0.745687
-32.174305 -92.640381 -8.001359
-29.732845 -93.143379 -3.641483
-27.866222 -90.400055 -9.239312
-27.594193 -92.987869 0.822176
-34.685478 -95.243881 -2.394179
-34.683975 -91.500061 -12.102081
-39.866646 -92.852791 -11.010533
-37.317928 -94.367172 -6.826473
-47.549103 -91.240799 -13.624199
-45.540150 -93.622063 -9.834228
-42.076454 -90.827118 -14.805641
-43.056835 -95.482620 -5.670630
-51.409039 -93.748039 -8.516024
-48.875553 -88.487595 -16.922764
-54.028221 -87.979874 -15.420212
-53.100311 -91.025833 -12.189453
-58.384907 -83.621490 -16.162893
-58.891266 -86.958694 -13.547234
-54.085587 -84.824089 -18.143408
-58.444252 -90.228577 -10.470767
-63.164879 -85.519592 -11.278372
-56.883293 -80.415527 -18.274714
-59.855461 -78.797478 -15.693695
-61.997929 -82.063324 -13.693030
-58.334255 -74.245804 -14.130362
-61.965317 -77.056625 -12.605494
-56.858948 -75.907524 -17.297445
-64.742790 -80.303574 -10.766353
-63.066467 -75.378601 -9.063106
-54.016354 -72.012421 -15.365993
-53.934719 -70.684517 -11.670753
-58.798553 -72.729736 -10.456453
-47.426647 -68.605812 -8.717145
-52.961411 -69.716301 -7.560633
-48.771782 -69.300613 -12.763213
-58.262695 -71.521454 -6.384255
-51.171391 -69.265427 -3.167892
-41.953976 -68.200600 -9.900427
-39.734230 -68.393341 -5.707983
-45.376282 -68.492477 -4.375643
-32.051701 -70.005272 -3.094329
-37.153992 -69.237495 -1.367913
-34.561405 -68.873474 -7.196880
-42.799984 -69.026604 0.108533
-34.447735 -70.761108 2.953901
-27.762245 -71.212975 -5.079743
-25.572561 -73.266190 -1.298289
-29.593792 -71.833694 0.987312
-23.802845 -75.900856 2.345117
-22.552216 -74.876480 -3.859066
-27.412510 -74.280594 4.908653
-20.630478 -76.922668 -14.651191
-19.881618 -79.183167 -12.486034
-19.811449 -77.977600 -9.547930
-20.952782 -75.669159 -12.144213
-20.989779 -82.498802 -13.624861
-19.832287 -81.824524 -10.381941
-20.647343 -80.036812 -15.326327
-19.352356 -80.727768 -7.043149
-20.685947 -84.717896 -8.413651
-20.641418 -76.498901 -6.631793
-22.611071 -82.727585 -16.660576
-24.194620 -85.093018 -15.416511
-22.258085 -85.148460 -12.030162
-28.935369 -86.607239 -17.567997
-26.733589 -87.462616 -14.251213
-26.234074 -84.600929 -18.458542
-24.542728 -87.839851 -10.569786
-30.247868 -89.662117 -13.158959
-30.943813 -85.360817 -20.436136
-34.538795 -86.761993 -19.759987
-32.551559 -88.401321 -16.694159
-40.135002 -85.587761 -21.663879
-38.859966 -87.827080 -19.001247
-36.050560 -84.895958 -22.303757
-36.991188 -89.848343 -15.796870
-43.725822 -88.435234 -18.088070
-40.747387 -83.279800 -23.766272
-44.854630 -83.212372 -22.972164
-44.661999 -85.830627 -20.807901
-48.028179 -80.037552 -23.513166
-49.107986 -82.704361 -21.849543
-44.346478 -80.749046 -24.609501
-49.405567 -85.576630 -19.662495
-53.224724 -81.755951 -20.313547
-46.279106 -77.703613 -24.700207
-49.099358 -76.523560 -23.171387
-51.495399 -78.942299 -21.961594
-47.991234 -73.207947 -22.032595
-51.474609 -75.095390 -21.127640
-46.262245 -74.589493 -24.025105
-54.513840 -77.527092 -19.902245
-53.180321 -73.536987 -18.531792
-44.298569 -71.898743 -22.690855
-44.786461 -70.613739 -20.240921
-49.048870 -71.771484 -19.479429
-40.045746 -69.099518 -18.089397
-44.573410 -69.457336 -17.258339
-40.675632 -70.025391 -20.892857
-49.323586 -70.415062 -16.375633
-43.618446 -68.592819 -13.786419
-35.965900 -69.265503 -18.915241
-34.442272 -68.944771 -15.897401
-38.755417 -68.518646 -14.815369
-28.845989 -70.118988 -13.993512
-32.446926 -69.092865 -12.508286
-30.859097 -69.730370 -17.047623
-36.875053 -68.406563 -11.148508
-30.140326 -69.819626 -8.857313
-26.162216 -71.346512 -15.585108
-24.126331 -72.494354 -12.685213
-26.644833 -71.089287 -10.701620
-22.198837 -74.215538 -9.659957
-22.563112 -73.877243 -14.741877
-24.460554 -72.678223 -7.282858
-23.652054 -75.656052 -21.908766
-22.578043 -76.901352 -20.615660
-21.939873 -76.148132 -18.776621
-23.241491 -74.839119 -20.440023
-23.263144 -78.834648 -21.306198
-21.952822 -78.538620 -19.294853
-23.661148 -77.334236 -22.272568
-21.023655 -77.894638 -17.059122
-21.898516 -80.512230 -17.958176
-21.869308 -75.120445 -16.789272
-24.749130 -78.825005 -23.011765
-25.113653 -80.375702 -22.338425
-23.463203 -80.608185 -20.321058
-27.911564 -81.238174 -23.613026
-26.244305 -82.046188 -21.701208
-26.701548 -79.834518 -23.980667
-24.428650 -82.560272 -19.372616
-28.171329 -83.755699 -21.071142
-29.310877 -80.255508 -25.076313
-31.194897 -81.356857 -24.891911
-29.866722 -82.630646 -23.222242
-34.463608 -80.641747 -26.009224
-33.786743 -82.273804 -24.655865
-32.062824 -80.005005 -26.082752
-32.595047 -83.877869 -22.801645
-37.013062 -82.950844 -24.304707
-34.664986 -79.109612 -26.893026
-37.259453 -79.270073 -26.780317
-37.399223 -81.030769 -25.780733
-39.081318 -77.394745 -27.091103
-40.161957 -79.088120 -26.428011
-36.604496 -77.745819 -27.347431
-40.739056 -81.075562 -25.337557
-43.244469 -78.569145 -25.764662
-37.675232 -76.058571 -27.397686
-39.754871 -75.337807 -26.897442
-41.648399 -76.745781 -26.497776
-39.059669 -73.399261 -26.224934
-41.635448 -74.355331 -25.979557
-37.666142 -74.380402 -27.033888
-44.090107 -75.794975 -25.494835
-43.215263 -73.177406 -24.595795
-36.578186 -72.889648 -26.294672
-37.219322 -71.863480 -25.174646
-40.125107 -72.285774 -24.953341
-34.411331 -70.995728 -23.918058
-37.344063 -70.847755 -23.573160
-34.625801 -71.880135 -25.325745
-40.685196 -71.129364 -23.181330
-36.942566 -69.933929 -21.482775
-32.016479 -71.459145 -24.230093
-31.138094 -70.882324 -22.621147
-33.721657 -70.263306 -22.052113
-27.859228 -71.592155 -21.521891
-29.801594 -70.620155 -20.618505
-29.264502 -71.709656 -23.223673
-32.518818 -69.811775 -19.752270
-28.100748 -70.738792 -18.249218
-26.662313 -72.605026 -22.413418
-25.073479 -72.969078 -20.732769
-26.189075 -71.863174 -19.493649
-23.426331 -73.805801 -18.846375
-24.722794 -73.968796 -21.959019
-24.374729 -72.614059 -17.216370
-27.532478 -76.199577 -25.457071
-25.691761 -76.329712 -24.282362
-25.687346 -75.515129 -24.105778
-27.526215 -75.045189 -25.206821
-24.453489 -76.201843 -23.156500
-25.065304 -77.449814 -23.717789
-25.051006 -74.812828 -23.146143
-28.875500 -76.894005 -26.123560
-27.445112 -77.923645 -25.300035
-26.497421 -77.433632 -24.829739
-26.180576 -78.568329 -24.329912
-28.133190 -79.036095 -25.240253
-30.768518 -76.721680 -26.815870
-30.713104 -78.113792 -26.599888
-29.377333 -78.235390 -26.111368
-30.322674 -79.236610 -26.069164
-32.457409 -78.642464 -26.821701
-32.102669 -75.783562 -27.128448
-33.581440 -76.788780 -27.420462
-32.640015 -77.450752 -27.199898
-34.453396 -77.815254 -27.355408
-35.505016 -76.499504 -27.535721
-32.096413 -74.629181 -26.878193
